ply
format ascii 1.0
comment PCL generated
element vertex 1074
property float x
property float y
property float z
property uchar red
property uchar green
property uchar blue
element camera 0
property float view_px
property float view_py
property float view_pz
property float x_axisx
property float x_axisy
property float x_axisz
property float y_axisx
property float y_axisy
property float y_axisz
property float z_axisx
property float z_axisy
property float z_axisz
property float focal
property float scalex
property float scaley
property float centerx
property float centery
property int viewportx
property int viewporty
property float k1
property float k2
end_header
-0.13809502 -1.3691639 0.94530392 72 49 41
-1.078788 -1.3489214 0.94735795 111 103 99
-1.0938661 -1.2314039 0.94577813 124 117 110
-1.0797051 -1.240523 0.95489019 116 111 110
-1.1058449 -1.2214085 0.94475639 101 95 87
-1.1073925 -0.87665135 0.93854779 114 107 99
-1.1070497 -0.81469727 0.93728817 115 107 98
-1.1071477 -0.78973639 0.93871647 118 110 101
-1.1073964 -0.76397401 0.94364148 119 110 101
-1.1071539 -0.73604107 0.93561041 120 111 101
-1.1531869 -0.6335929 0.9489696 123 113 100
-1.1077853 -0.6414451 0.94773006 124 114 101
-1.1536299 -0.61523139 0.9448278 125 115 102
-1.1077507 -0.6152643 0.94453943 126 116 103
-1.153231 -0.58512473 0.94523251 128 117 104
-1.1079178 -0.58468425 0.94582641 128 117 104
-1.1531984 -0.55494678 0.94450718 130 119 105
-1.1080056 -0.55421722 0.94594371 132 120 107
-1.1530197 -0.52476084 0.94446933 133 121 106
-1.1081153 -0.52486545 0.94470829 133 121 106
-1.1530682 -0.49473912 0.94426447 133 121 105
-1.108198 -0.49514046 0.94506532 136 123 107
-1.1526864 -0.46555889 0.94392103 135 122 105
-1.1083014 -0.46472108 0.94694346 138 124 108
-1.1526906 -0.43464053 0.94518965 139 125 107
-1.1083205 -0.43587822 0.94385093 141 127 109
-1.1525078 -0.40488085 0.94463325 143 128 109
-1.1083944 -0.40526554 0.94432497 145 130 110
-1.1524432 -0.37548298 0.94541162 146 130 110
-1.1086076 -0.37481019 0.9452343 149 132 111
-1.1523314 -0.34503973 0.94506925 149 132 110
-1.1086137 -0.34444633 0.945768 151 134 111
-1.1522504 -0.31545237 0.94553095 152 134 111
-1.1089045 -0.31380439 0.94438273 155 136 112
-1.1522856 -0.28447843 0.94527769 155 136 112
-1.1087635 -0.28496823 0.94396549 156 137 112
-1.1519523 -0.25511995 0.94465381 153 135 112
-1.1089149 -0.25509408 0.94544268 156 137 112
-1.1519524 -0.22581929 0.94527304 150 133 112
-1.1091316 -0.22473799 0.94595212 151 134 112
-1.1516459 -0.19534071 0.94544232 147 131 110
-1.1100255 -0.18471108 0.95332199 149 133 112
-1.1093264 -0.19502659 0.94467747 149 132 111
-1.1517386 -0.16485706 0.94592577 149 132 111
-1.1093317 -0.16449831 0.94376183 151 134 112
-1.1516258 -0.13581564 0.94509232 152 134 112
-1.1102319 -0.13045676 0.95707393 154 136 113
-1.1093924 -0.13488249 0.94633782 154 136 113
-1.1516191 -0.11546005 0.93935883 154 136 114
-1.1100938 -0.10220283 0.94934654 157 138 115
-1.1094134 -0.1053331 0.94374126 157 138 115
-1.1101158 -0.071582735 0.93838519 159 139 114
-1.1095407 -0.077582136 0.94631231 158 139 114
-1.1495913 0.20829543 0.94673204 159 139 113
-1.1503022 0.22500032 0.94398874 160 140 114
-1.1500583 0.25413182 0.9447512 159 140 115
-1.1107681 0.26287928 0.94175059 163 143 118
-1.1497747 0.28426942 0.94548118 158 139 115
-1.1112651 0.28536749 0.94322383 162 142 117
-1.1496981 0.31482658 0.94491178 162 142 116
-1.1109588 0.31578121 0.94629002 169 147 120
-1.1099732 0.31163439 0.93142641 172 150 122
-1.1494622 0.34494141 0.94488454 171 148 119
-1.11195 0.34516549 0.94353867 174 151 120
-1.1495348 0.3766669 0.94560909 173 150 121
-1.1125087 0.37417293 0.94363582 175 151 121
-1.1494234 0.40714547 0.94420499 170 148 119
-1.1138628 0.40515348 0.94400406 171 148 119
-1.1494625 0.43588805 0.94514501 166 145 118
-1.1139734 0.43607548 0.94367987 165 144 116
-1.1491194 0.46530938 0.94575834 163 143 117
-1.1133293 0.46459508 0.9450314 161 141 114
-1.1489819 0.49558929 0.94377035 159 140 115
-1.1115022 0.48241183 0.94554567 158 139 113
-1.14899 0.52614909 0.94512713 154 137 113
-1.1488644 0.55554003 0.94431716 153 136 114
-1.1488039 0.58547246 0.94570214 150 134 114
-1.1485001 0.61571145 0.94470233 148 133 113
-1.1486117 0.64649194 0.94568384 143 129 110
-1.1481639 0.67621154 0.9428938 142 128 111
-1.1481367 0.70543706 0.94538945 140 127 110
-1.1481041 0.73409462 0.94484347 139 126 110
-1.1480186 0.76401061 0.94488674 136 124 109
-1.1477746 0.79401487 0.94482332 134 122 108
-1.1477139 0.82385361 0.94497114 132 121 107
-1.1477013 0.85504413 0.94585252 130 119 105
-1.1475686 0.88530642 0.94482881 128 118 105
-1.1474187 0.91472435 0.94505495 128 118 106
-1.1472635 0.94595486 0.94446778 127 117 106
-1.1471757 0.97614837 0.94522357 125 116 105
-1.1470692 1.0050393 0.94551682 123 114 103
-1.1470084 1.035275 0.94586676 121 112 99
-1.1467969 1.0653436 0.9447614 122 113 101
-1.1465884 1.0949454 0.94414121 121 112 100
-1.1457713 1.1199819 0.94472915 125 116 105
-1.1238489 1.1291925 0.94444591 140 128 117
-1.0947835 1.1304233 0.94583416 146 133 121
-1.0641115 1.1296706 0.94525933 147 135 122
-1.0349005 1.1299366 0.94445527 149 136 123
-1.0056992 1.1294737 0.94720232 150 137 125
-0.97494751 1.1295725 0.94600433 151 138 126
-0.9444598 1.1287956 0.9448247 152 139 127
-0.91572845 1.1294941 0.94541943 153 140 129
-0.88529682 1.128468 0.94450498 154 141 130
-0.85420054 1.1290839 0.94479448 154 142 130
-0.82464445 1.1287107 0.94414455 155 142 131
-0.79507589 1.1288593 0.94462991 155 143 132
-0.76535952 1.1287674 0.94469225 155 143 132
-0.7357167 1.1283344 0.9452858 156 144 133
-0.70411235 1.1285377 0.94436824 156 144 133
-0.67389685 1.1285747 0.94615763 155 144 133
-0.64550853 1.1291479 0.94498134 155 144 134
-0.61482137 1.1291358 0.94540131 155 144 134
-0.58487141 1.1303409 0.94601876 155 144 134
-0.55469245 1.1305113 0.94432986 155 144 135
-0.52478766 1.1303539 0.94629973 154 143 135
-0.4942829 1.1304394 0.94586223 153 143 134
-0.46444815 1.1303203 0.94582802 152 142 134
-0.43545443 1.1304502 0.94599634 151 141 134
-0.40494448 1.1297939 0.94530088 150 141 133
-0.37455854 1.1303593 0.94559932 150 140 133
-0.34776059 1.1278802 0.94500679 149 140 133
-0.31536114 1.1245306 0.94359905 148 140 133
-0.28631854 1.1244682 0.9448657 148 140 133
-0.25478405 1.1243031 0.94515604 147 139 133
-0.22379693 1.12414 0.94545799 147 139 133
-0.19500947 1.1240113 0.94541287 146 138 133
-0.16580777 1.123933 0.94515008 145 138 133
-0.13497557 1.1238465 0.94482923 145 137 132
-0.1045915 1.1236964 0.94465822 144 137 132
-0.078532845 1.123711 0.94764429 143 136 132
-0.059160918 1.1236088 0.95976311 143 136 132
-0.93294442 1.1414889 0.94689226 153 140 128
-0.91399521 1.1416069 0.9319433 154 141 130
-0.85544062 1.1413062 0.94287831 154 142 131
-0.82521731 1.1413932 0.94432741 154 142 131
-0.79522765 1.1413107 0.94703621 155 143 132
-0.76751047 1.1410388 0.9427126 155 144 133
-0.73111218 1.1409085 0.9472385 155 144 133
-0.70283777 1.140597 0.94411796 155 144 133
-0.67687172 1.1403641 0.9453848 156 144 133
-0.64487123 1.1405199 0.94547826 155 144 134
-0.61790514 1.1405264 0.94403809 155 144 134
-0.59294659 1.1403775 0.94253302 155 144 135
-0.56686658 1.1400459 0.95052344 155 144 135
-0.53254986 1.1401255 0.93684816 155 144 135
-1.0845168 -1.361351 0.98224133 74 51 42
-1.0703189 -1.3677891 0.97589475 84 65 57
-1.0344156 -1.3730025 0.9756844 76 47 38
-1.004145 -1.3715434 0.97485346 83 55 45
-0.9756301 -1.3697428 0.97680622 80 54 45
-0.94535333 -1.3704556 0.97615349 79 53 45
-0.91738713 -1.3715048 0.97388458 79 53 44
-0.84333062 -1.3729231 0.98050153 81 52 42
-0.82502365 -1.3723785 0.97572392 83 54 43
-0.79414278 -1.37147 0.97651643 89 60 47
-0.76366603 -1.3701644 0.97614378 90 62 50
-0.7342357 -1.3694198 0.97489637 91 64 52
-0.70517647 -1.3693323 0.97601968 87 60 51
-0.67575526 -1.3695942 0.9764505 89 62 53
-0.64559501 -1.3695197 0.97600216 87 61 53
-0.61473012 -1.3694584 0.97560489 90 62 53
-0.58484012 -1.369401 0.97566342 88 61 53
-0.55477148 -1.3691931 0.97488588 89 63 54
-0.52521861 -1.3694363 0.9760837 95 69 57
-0.49501193 -1.3694109 0.97532523 97 70 58
-0.46476012 -1.3691698 0.97570068 90 63 55
-0.43481603 -1.369144 0.97579622 91 64 56
-0.40528455 -1.3691856 0.97439533 91 65 56
-0.37502146 -1.3690194 0.97530323 88 62 55
-0.34485349 -1.3693894 0.97543257 89 62 54
-0.31516016 -1.3688511 0.97562432 88 62 54
-0.28526932 -1.3692056 0.97567344 87 61 52
-0.25509658 -1.3687348 0.97485167 84 58 50
-0.22481687 -1.3690587 0.97585452 83 57 49
-0.19558938 -1.3687352 0.97512293 77 54 47
-0.16538289 -1.3689477 0.97556245 75 52 45
-0.1389074 -1.3685583 0.97552449 73 50 42
-1.07902 -1.348749 0.97499549 111 104 100
-1.0950348 -1.2314765 0.9737314 124 115 109
-1.1044227 -1.2232124 0.97394586 104 98 92
-1.1081414 -0.75932264 0.96279919 120 111 102
-1.108198 -0.73886412 0.96998256 119 111 100
-1.1546115 -0.63974386 0.97642285 124 114 102
-1.1080627 -0.63827431 0.97074616 123 113 100
-1.1543196 -0.61466783 0.97380054 125 115 102
-1.1083822 -0.61366534 0.97593576 126 115 103
-1.1543357 -0.58432722 0.97546756 128 117 104
-1.1082385 -0.58438826 0.9739545 129 118 104
-1.1541696 -0.55510199 0.97585213 130 118 104
-1.1082376 -0.55576396 0.97489524 130 119 105
-1.1540933 -0.52532572 0.97400516 133 121 106
-1.1083788 -0.52487224 0.97394776 134 121 107
-1.1539212 -0.49514264 0.97393674 134 122 106
-1.108501 -0.49417436 0.97583658 133 120 104
-1.1538886 -0.4656336 0.97464079 135 122 105
-1.1086568 -0.46457258 0.97528279 135 122 105
-1.15371 -0.43553552 0.97510099 137 123 106
-1.108709 -0.43468541 0.97380811 139 125 107
-1.1537453 -0.40391007 0.97422498 141 127 108
-1.1089159 -0.40538126 0.97519851 143 128 109
-1.1534377 -0.37395748 0.97583824 146 130 110
-1.108948 -0.37495488 0.97560692 146 130 109
-1.1533828 -0.34523642 0.97375423 150 133 112
-1.1091684 -0.34456301 0.97550613 150 132 111
-1.1531081 -0.31467432 0.97506279 153 135 113
-1.1092819 -0.31469956 0.97546661 153 135 112
-1.1529471 -0.28519121 0.97463363 153 135 112
-1.1101301 -0.2746399 0.98599643 155 136 113
-1.1092699 -0.28477556 0.97379601 155 136 113
-1.1529169 -0.25628725 0.97565651 149 132 111
-1.1100991 -0.25535491 0.9838711 151 133 111
-1.1092892 -0.25374165 0.97502202 152 134 112
-1.1527215 -0.22485569 0.97406983 145 129 109
-1.1100453 -0.21880949 0.98913825 146 130 110
-1.1095958 -0.22590876 0.97505832 148 131 111
-1.1529926 -0.1948085 0.97506285 145 129 109
-1.1101928 -0.19897816 0.98262328 147 130 110
-1.1094135 -0.19469392 0.97419357 147 131 110
-1.1526659 -0.16503116 0.97525877 147 130 109
-1.1102012 -0.16751452 0.97926801 149 132 110
-1.1095139 -0.16392989 0.97301459 149 132 111
-1.1524508 -0.13732837 0.97522223 148 131 109
-1.1102376 -0.13447887 0.98006713 151 133 111
-1.1096202 -0.13579001 0.97420043 151 133 111
-1.1101811 -0.10211407 0.97491962 154 136 113
-1.1096559 -0.10587372 0.9729768 154 135 112
-1.1103545 -0.074804708 0.97825283 155 136 111
-1.1098208 -0.078256153 0.97236019 155 136 112
-1.1510708 0.20943271 0.96788722 157 137 111
-1.1510588 0.2256379 0.97478807 157 138 112
-1.1510693 0.25577298 0.97413301 157 138 113
-1.1111847 0.26666293 0.96711731 160 141 116
-1.1510117 0.28575233 0.97534513 156 138 113
-1.1112108 0.28349343 0.97418916 157 139 115
-1.1507572 0.31582537 0.97481954 157 138 114
-1.1114374 0.31501809 0.97493017 162 142 116
-1.1506213 0.34482411 0.97541851 166 145 118
-1.1113954 0.34574223 0.97463918 172 149 120
-1.150488 0.37467805 0.97471046 171 148 120
-1.1114901 0.37515801 0.97376162 172 150 120
-1.1505286 0.40503421 0.97520179 166 145 117
-1.1116498 0.40432683 0.97482741 168 147 119
-1.1500901 0.4346371 0.97469658 163 142 115
-1.1121112 0.43454939 0.9752478 165 144 117
-1.1501688 0.46394727 0.97576028 162 142 117
-1.1118596 0.46494034 0.97412533 162 142 117
-1.1501954 0.4945327 0.97520363 157 139 115
-1.1116742 0.48339874 0.97723991 159 140 115
-1.1499834 0.52540445 0.97491705 153 136 113
-1.1497756 0.55557328 0.97483408 152 136 115
-1.1497178 0.58527315 0.97560978 150 135 115
-1.1495402 0.61551571 0.97500634 146 132 113
-1.1495657 0.6441958 0.97455353 144 129 111
-1.1492976 0.67474484 0.97461778 143 129 112
-1.1491959 0.70472342 0.97526979 140 127 110
-1.1490163 0.73595005 0.97503257 138 126 110
-1.148993 0.76550025 0.97478765 136 124 109
-1.1490382 0.79502064 0.97540796 133 122 107
-1.1487257 0.82442856 0.97515273 131 120 105
-1.1485261 0.85391289 0.97588134 129 118 105
-1.1483483 0.88451177 0.97401255 127 117 104
-1.1483835 0.91443598 0.97524172 127 117 105
-1.1483061 0.94420797 0.97449464 126 117 105
-1.1481432 0.97491193 0.97555673 124 115 103
-1.1481043 1.0048267 0.97613323 124 115 103
-1.1479697 1.0341485 0.9751848 121 112 100
-1.1478341 1.0650085 0.97562325 121 112 100
-1.1478441 1.0949358 0.97462732 121 112 101
-1.147 1.1206433 0.9749583 125 116 105
-1.1248801 1.1298983 0.97446203 142 131 120
-1.0952203 1.1321434 0.97433412 145 133 122
-1.0653354 1.1322345 0.97299069 147 134 123
-1.0343686 1.1319785 0.97381097 148 136 123
-1.0042366 1.1312393 0.97586536 149 137 124
-0.97514623 1.1321287 0.97511846 150 138 125
-0.945279 1.1303682 0.97562242 151 138 126
-0.91441339 1.1306376 0.97511142 152 139 128
-0.88527316 1.1310772 0.97534686 153 140 129
-0.85622567 1.1305032 0.97413266 153 141 130
-0.82528925 1.1304022 0.97482705 154 142 131
-0.79466194 1.1305783 0.97520894 154 142 132
-0.76471412 1.1303868 0.974608 154 143 132
-0.73488528 1.1307656 0.97572327 155 143 133
-0.70553589 1.130426 0.97637123 155 143 133
-0.67504513 1.1303585 0.97506142 155 143 133
-0.64480895 1.1298176 0.97510749 155 143 133
-0.6138218 1.1311578 0.97459722 155 144 134
-0.5846048 1.1302286 0.97593796 154 144 134
-0.55436671 1.1309165 0.97284526 154 143 135
-0.52555579 1.1310086 0.975541 153 143 134
-0.49543092 1.1315401 0.97569185 152 142 134
-0.46510434 1.1316715 0.97507298 151 141 134
-0.43565434 1.1314042 0.97554117 150 141 133
-0.40549341 1.1318282 0.97515571 150 140 133
-0.37555575 1.130789 0.97514796 149 140 132
-0.34636143 1.1272775 0.97413212 148 139 132
-0.31488606 1.1246619 0.97466284 148 139 132
-0.2847769 1.1245337 0.97424597 147 139 133
-0.25576621 1.1244577 0.97398543 146 138 133
-0.22613004 1.1243757 0.97580922 146 138 133
-0.19480225 1.1241963 0.97516352 145 138 133
-0.16501999 1.1239983 0.9748686 145 137 132
-0.13486828 1.1240908 0.9745661 144 136 131
-0.10445984 1.1239731 0.9749366 143 136 131
-0.073552154 1.1238631 0.97538435 142 135 131
-0.049440186 1.1237295 0.9796133 142 135 131
-0.8766799 1.1413879 0.9638257 153 141 130
-0.84532028 1.141523 0.97600162 154 142 131
-0.82313859 1.1413932 0.97465962 154 142 132
-0.79544276 1.1414667 0.97904766 154 143 132
-0.76617628 1.1410873 0.97045571 155 143 133
-0.73655307 1.1409018 0.97407442 155 143 133
-0.70437008 1.1410905 0.97600567 154 143 133
-0.67547011 1.1406522 0.97410733 154 143 133
-0.64290273 1.1406368 0.9765566 154 143 134
-0.6162073 1.1403475 0.97253525 155 144 134
-0.58400655 1.1403248 0.97254199 155 144 135
-0.56112188 1.1404977 0.97654611 154 144 135
-0.51492673 1.1401172 0.98056602 153 143 134
-0.48712111 1.1400869 0.98685426 152 142 134
-0.46970579 1.1401703 0.98234665 151 142 134
-0.42210397 1.1403881 0.98540902 150 141 133
-1.082697 -1.3602136 1.0110919 88 72 67
-1.069242 -1.368397 1.0054605 81 62 56
-1.0350169 -1.3732533 1.0057775 77 49 40
-1.0052116 -1.3726207 1.004003 82 55 45
-0.97419554 -1.3715366 1.0059909 80 54 45
-0.94444215 -1.3707944 1.0058016 79 53 45
-0.92407727 -1.37148 1.0000671 79 52 45
-0.84668452 -1.3726718 1.0068437 82 52 41
-0.82275707 -1.3696741 1.0063686 84 55 44
-0.7948631 -1.3692396 1.0071875 88 60 47
-0.76620233 -1.3697878 1.0054958 89 61 49
-0.7354095 -1.3692524 1.0059068 90 63 51
-0.70470268 -1.3693488 1.0061945 86 60 51
-0.67484385 -1.3691338 1.0062456 89 62 53
-0.64503241 -1.3690794 1.0064867 87 60 53
-0.61566776 -1.3689984 1.0059636 88 63 54
-0.58507788 -1.369369 1.0063695 87 61 54
-0.55453968 -1.3691784 1.0055043 88 63 54
-0.52468872 -1.3691845 1.0055107 94 69 57
-0.49525547 -1.3689686 1.0067755 96 70 58
-0.46503839 -1.3690106 1.0052899 89 64 56
-0.43494421 -1.368902 1.006246 91 65 56
-0.40470305 -1.3691341 1.0051316 91 65 56
-0.37488663 -1.3690916 1.0063926 87 62 55
-0.3447364 -1.3685771 1.0058631 88 62 54
-0.31420484 -1.3690795 1.0050894 87 62 54
-0.28462484 -1.3686413 1.0057256 87 61 53
-0.25500968 -1.3686353 1.0051157 85 59 51
-0.22477317 -1.3686942 1.0055549 83 57 49
-0.19477001 -1.3685093 1.0055779 77 54 47
-0.16569428 -1.3687108 1.0057138 75 52 45
-0.13880487 -1.3685749 1.0057267 72 50 42
-1.0984857 -1.2306249 0.99616307 125 116 109
-1.1037493 -1.2231746 0.99814647 107 102 96
-1.1558591 -0.66170454 1.0128679 123 113 101
-1.1554749 -0.64349478 1.0050893 124 114 102
-1.155393 -0.61538529 1.0045642 126 115 102
-1.1085925 -0.60922229 1.0008934 126 116 103
-1.1553994 -0.58567697 1.006188 127 116 102
-1.1088636 -0.58585185 1.0035753 128 117 104
-1.155174 -0.55477327 1.0049285 128 117 102
-1.1088822 -0.55229092 1.002342 130 119 105
-1.1548071 -0.52399886 1.0041109 131 118 103
-1.1090771 -0.52464795 1.0056609 133 121 106
-1.1549432 -0.49423864 1.0047448 133 120 104
-1.1089286 -0.49515408 1.002106 135 122 106
-1.154828 -0.46469399 1.0046401 135 122 105
-1.1091434 -0.46603245 1.0047324 136 122 105
-1.1545533 -0.4351218 1.0046575 138 125 107
-1.1091294 -0.43496624 1.0045165 138 124 106
-1.1544231 -0.40456486 1.0052727 143 128 111
-1.1093403 -0.40334937 1.0049733 143 128 110
-1.1542813 -0.37470469 1.0053946 147 131 113
-1.1100568 -0.38164061 1.0139983 147 132 113
-1.1094619 -0.37426749 1.004512 147 131 112
-1.1542441 -0.34382206 1.004813 149 133 113
-1.1101779 -0.33600405 1.0052956 151 134 113
-1.109476 -0.34727111 1.0041283 150 133 113
-1.1543472 -0.31414217 1.0053824 150 132 111
-1.1101226 -0.31552336 1.0068883 154 136 114
-1.1095719 -0.31442973 1.0051717 153 135 113
-1.15416 -0.28484342 1.0038323 147 131 110
-1.1101179 -0.28161654 1.0126399 149 132 111
-1.1094979 -0.28494206 1.0012149 152 134 112
-1.1539255 -0.25418615 1.0045916 143 127 108
-1.1102999 -0.25735196 1.011642 146 130 110
-1.1096148 -0.25340059 1.001904 146 130 110
-1.1538336 -0.2246744 1.004985 141 126 106
-1.1101708 -0.22238894 1.0066221 142 127 107
-1.109726 -0.22697785 1.0022094 143 128 108
-1.1536553 -0.19464372 1.0051892 142 126 107
-1.1102465 -0.19473332 1.0088526 145 129 108
-1.1095419 -0.19789259 0.99369746 147 130 111
-1.1534774 -0.16606155 1.0039589 144 128 107
-1.1103767 -0.16464539 1.007205 145 129 108
-1.1097801 -0.1639656 0.9950757 148 131 110
-1.1535852 -0.14101699 1.0033901 146 129 108
-1.1103235 -0.1364971 1.0078766 148 131 109
-1.1098213 -0.13036144 1.0023391 149 131 109
-1.1104188 -0.10475107 1.0047488 151 133 110
-1.1098331 -0.10141444 0.99832648 152 133 110
-1.1105177 -0.077957667 1.0065663 153 134 110
-1.1099998 -0.086974278 1.0047902 153 134 111
-1.152133 0.22390661 1.0043095 155 136 111
-1.1519958 0.25496078 1.0056714 154 135 111
-1.1515782 0.28427234 1.0037175 153 135 111
-1.1115967 0.28618693 1.0034308 155 137 113
-1.1517273 0.31343171 1.0049914 154 136 112
-1.1117756 0.31331432 1.0043296 156 137 114
-1.1514558 0.34368241 1.0044309 159 140 114
-1.1118181 0.34447223 1.0048908 166 145 118
-1.1515418 0.3741518 1.0046768 163 142 114
-1.1121014 0.37559724 1.0047632 168 147 118
-1.1512641 0.40469402 1.0051316 163 142 115
-1.1120604 0.40548161 1.0042012 165 144 116
-1.151372 0.434441 1.0057589 162 142 116
-1.1122144 0.43485507 1.00577 162 142 115
-1.1511664 0.46462995 1.0048738 160 141 116
-1.1122634 0.46437836 1.0044173 160 141 116
-1.1509809 0.49570671 1.0054499 156 138 115
-1.1121565 0.48494387 1.0079678 156 138 114
-1.1507956 0.52608347 1.0038235 155 138 116
-1.150848 0.55653691 1.0054592 152 136 116
-1.1506661 0.58647925 1.0042596 149 134 114
-1.1505473 0.61395854 1.0062416 146 131 113
-1.1504391 0.64308178 1.0045167 144 130 113
-1.1503335 0.67407548 1.005115 143 129 113
-1.1502143 0.70547128 1.0045648 140 127 111
-1.1501085 0.73556358 1.0048018 138 126 110
-1.1499295 0.76547796 1.006018 136 125 110
-1.1498274 0.79565322 1.0049189 131 120 105
-1.1496916 0.82518798 1.0049579 129 119 105
-1.1495775 0.85494405 1.0068281 128 118 104
-1.1494154 0.88488132 1.0036924 127 117 104
-1.1493025 0.91534603 1.0050097 125 116 103
-1.1491616 0.94489664 1.0045389 123 114 101
-1.1491283 0.97574282 1.0050453 122 113 101
-1.1490928 1.0056115 1.0061144 122 113 101
-1.1488889 1.0354702 1.0050478 122 113 102
-1.1487947 1.0661389 1.005628 121 113 102
-1.1485798 1.0952855 1.0046223 122 113 103
-1.1478028 1.1207228 1.005852 125 116 105
-1.124483 1.1295552 1.0045176 139 128 118
-1.0973754 1.1366893 1.0040196 144 133 123
-1.0645325 1.133109 1.007331 146 135 124
-1.0355666 1.131089 1.0054656 148 136 125
-1.0068395 1.1310985 1.004627 149 136 125
-0.97563612 1.1293323 1.0040872 150 137 125
-0.94471753 1.130145 1.0055964 151 138 126
-0.91493756 1.1294117 1.0055636 151 139 127
-0.88459957 1.1297878 1.004524 152 140 129
-0.85536069 1.1291643 1.0055878 152 141 130
-0.82579488 1.1293809 1.0050552 153 141 131
-0.79574513 1.1288626 1.0050492 153 142 132
-0.76533407 1.1287574 1.0050801 154 143 133
-0.73481816 1.1289715 1.0042995 154 143 133
-0.70487392 1.1284474 1.0058887 154 142 132
-0.67484242 1.1284976 1.0048325 153 142 133
-0.64487302 1.1282712 1.0048699 154 143 133
-0.61417997 1.1290346 1.0047296 154 143 134
-0.58566087 1.1291512 1.003443 153 143 134
-0.55480188 1.1294843 1.0044413 153 143 134
-0.52485472 1.1294074 1.0045813 152 142 134
-0.49458909 1.1303381 1.0055939 151 141 133
-0.46460566 1.1304731 1.0039904 150 141 133
-0.43454176 1.1304309 1.0047586 149 140 133
-0.40499139 1.1310217 1.0064696 149 139 132
-0.37512609 1.1304884 1.0043215 148 139 132
-0.34578404 1.1254991 1.0052266 147 138 131
-0.31479421 1.124714 1.0052332 146 138 131
-0.28463125 1.1246326 1.0048789 146 138 132
-0.25487393 1.1245834 1.0045841 145 137 132
-0.22447695 1.1244107 1.0046848 145 137 132
-0.19530942 1.1243812 1.0046935 145 137 132
-0.16479465 1.1242816 1.006063 144 137 132
-0.13475092 1.1241428 1.0048007 143 136 130
-0.10504648 1.124058 1.0043157 142 135 130
-0.075320639 1.1239933 1.0058333 141 134 130
-0.045301624 1.1238807 1.0054604 141 134 130
-0.023526341 1.1238135 1.0112126 140 134 130
-0.82348162 1.1411706 0.99909133 153 142 131
-0.79537237 1.141178 1.0012766 154 142 132
-0.76470023 1.1411725 1.0045165 154 143 133
-0.73595864 1.1415371 1.0071669 154 143 133
-0.70358986 1.141183 1.0059103 153 142 132
-0.67393523 1.1409299 1.0021594 153 142 133
-0.6457299 1.1404617 1.0068517 153 143 134
-0.61761892 1.1406202 1.0056095 154 143 135
-0.58434689 1.1405119 1.0047735 153 143 134
-0.55378282 1.1404381 1.0061598 153 142 134
-0.52408165 1.1404791 1.0087488 152 142 134
-0.49959147 1.1404694 1.0089803 151 141 134
-0.47032607 1.1400684 1.0083508 151 141 133
-1.0809888 -1.3603597 1.0377145 106 98 95
-1.0659854 -1.3709406 1.0332795 73 52 44
-1.0347341 -1.372066 1.0335697 77 51 42
-1.0042377 -1.3718377 1.0338464 82 55 45
-0.97388136 -1.3722923 1.0349742 79 53 46
-0.9491291 -1.3720526 1.0338795 78 52 45
-0.85328352 -1.3726397 1.0358715 82 52 40
-0.82436198 -1.3698493 1.0358562 82 54 43
-0.79418665 -1.3701961 1.0360751 89 60 48
-0.76418805 -1.3694735 1.0353196 89 62 50
-0.73547691 -1.3694961 1.0352435 91 63 52
-0.70576209 -1.3704567 1.0344459 84 58 51
-0.67432344 -1.3695898 1.0362725 87 62 53
-0.64407951 -1.3695432 1.0355226 88 63 54
-0.61473387 -1.3695047 1.0353006 91 65 55
-0.58492827 -1.3691843 1.0353593 91 65 56
-0.55516279 -1.3692942 1.0360736 90 65 56
-0.52476168 -1.3689765 1.0356455 94 69 58
-0.49445921 -1.3692719 1.0363559 96 70 58
-0.4649469 -1.3687154 1.0359823 90 64 56
-0.43471944 -1.3688993 1.0358343 91 65 56
-0.40490213 -1.3684945 1.0368019 91 65 56
-0.37468877 -1.3687412 1.0359232 86 61 55
-0.34491631 -1.3686682 1.0360301 88 61 54
-0.31527418 -1.3684745 1.0362487 87 61 53
-0.28515971 -1.3684548 1.0358542 87 61 53
-0.25506917 -1.3686495 1.0357111 85 59 51
-0.22457136 -1.3682877 1.0358863 83 57 50
-0.19416568 -1.368474 1.0360191 77 55 48
-0.16442271 -1.3680233 1.0357038 75 52 45
-0.13857988 -1.368485 1.035681 72 50 42
-1.1566886 -0.66784662 1.0375495 122 112 100
-1.1565012 -0.6453988 1.0353502 123 112 100
-1.1563387 -0.6156776 1.0359111 124 113 100
-1.1561973 -0.58546859 1.0347792 126 115 101
-1.1560141 -0.55451143 1.0351093 128 116 102
-1.1561303 -0.52556819 1.0346903 130 118 102
-1.1092659 -0.51230955 1.0219818 132 120 105
-1.1561399 -0.49514633 1.0350553 133 120 104
-1.1096662 -0.49549699 1.0245298 133 120 104
-1.1557595 -0.46615437 1.0358719 135 122 105
-1.1094866 -0.46288425 1.0263482 135 122 105
-1.1557907 -0.43553367 1.0350815 138 124 107
-1.1102078 -0.43470144 1.0375766 140 126 109
-1.1096873 -0.4357565 1.0337989 139 126 108
-1.1555223 -0.40659145 1.0349652 142 128 110
-1.1101331 -0.40889102 1.0352988 143 129 111
-1.1095971 -0.40515369 1.03421 144 129 111
-1.1554722 -0.37648186 1.0355186 145 130 112
-1.1101695 -0.38010633 1.0349551 146 131 113
-1.109732 -0.37401521 1.0348781 147 132 113
-1.1554247 -0.34648314 1.0352017 146 131 111
-1.1103787 -0.34666339 1.039372 148 132 112
-1.1097612 -0.34305459 1.0301049 149 133 112
-1.1552035 -0.3162677 1.035876 146 130 110
-1.1102926 -0.31442586 1.0363441 149 132 111
-1.1096812 -0.31445372 1.0314751 148 131 110
-1.1551186 -0.2856389 1.0347731 142 127 108
-1.1104227 -0.28621927 1.0366899 145 128 109
-1.1096375 -0.28333974 1.0286899 145 129 109
-1.154814 -0.25512832 1.0344344 139 125 106
-1.1105006 -0.25691226 1.0356476 141 126 107
-1.1098588 -0.25425225 1.0320418 141 125 106
-1.1548276 -0.22493757 1.0352222 139 124 106
-1.1105784 -0.22551404 1.035373 140 125 106
-1.1099052 -0.22753245 1.0372499 141 126 108
-1.1546758 -0.194148 1.0357283 140 125 106
-1.1105511 -0.19509946 1.0373117 142 126 106
-1.1098424 -0.19119097 1.0281681 142 127 107
-1.1544499 -0.16394128 1.0341412 142 126 106
-1.1106831 -0.16460666 1.0353348 144 127 107
-1.1545397 -0.14489192 1.0313637 144 127 107
-1.1106677 -0.13499451 1.0348265 147 130 109
-1.1108124 -0.10547145 1.0355312 149 131 109
-1.1108764 -0.080004349 1.0343627 151 133 110
-1.1530484 0.22688194 1.0352198 152 133 109
-1.1529379 0.25528675 1.035991 150 132 108
-1.1528484 0.28589812 1.0350075 149 131 108
-1.1121299 0.29015347 1.0344752 153 135 111
-1.1527305 0.31597862 1.0343353 151 133 111
-1.1121682 0.31476128 1.0345867 153 135 112
-1.1525662 0.34610993 1.0353149 153 134 111
-1.1124175 0.34403509 1.035028 158 138 113
-1.152442 0.37548026 1.0352368 159 139 113
-1.1123015 0.37429228 1.0342071 161 141 113
-1.1523409 0.40381315 1.0345632 164 143 117
-1.1124043 0.40517864 1.0344076 163 143 116
-1.1521826 0.43294072 1.0356524 165 145 120
-1.1124622 0.43569848 1.0351754 162 143 117
-1.1519132 0.46368143 1.034464 160 141 117
-1.1126424 0.46610573 1.035166 159 140 116
-1.1520355 0.49456826 1.0352952 158 140 117
-1.1125351 0.48391572 1.0331203 156 138 114
-1.1518466 0.52628654 1.0342551 155 138 117
-1.1517084 0.55629855 1.0358002 152 136 116
-1.1516069 0.58475018 1.0351292 148 133 113
-1.1514343 0.61400652 1.0358828 145 131 113
-1.1514672 0.64548779 1.0342981 144 131 113
-1.1512337 0.67449391 1.0342237 143 129 113
-1.1510912 0.70306081 1.0347108 140 128 112
-1.1510583 0.73397821 1.0347229 138 126 111
-1.1509861 0.76380873 1.0339119 137 125 112
-1.1509202 0.79386783 1.035894 134 123 110
-1.1507385 0.82545751 1.035466 130 120 107
-1.1506146 0.85639119 1.0360674 127 117 104
-1.1504133 0.88604736 1.0341024 126 117 105
-1.1505048 0.91575921 1.0345552 125 116 104
-1.1500442 0.94250262 1.0333791 123 114 102
-1.1498024 0.97448516 1.0309716 122 113 100
-1.1498039 1.0072131 1.0340438 121 113 101
-1.149875 1.0345137 1.035606 121 113 102
-1.1498141 1.0645038 1.0352932 121 113 103
-1.1495337 1.0932316 1.0330665 120 112 102
-1.1481773 1.1210829 1.0351729 123 114 103
-1.1242763 1.130657 1.0350198 139 129 120
-1.0960462 1.1362206 1.0286525 144 133 124
-1.0632218 1.1383229 1.0280858 145 134 125
-1.0318396 1.1377363 1.0346681 147 136 125
-1.0033112 1.1343783 1.0342048 149 137 126
-0.97301924 1.1344459 1.0314221 149 137 125
-0.94425362 1.1330341 1.0347316 150 137 125
-0.91475862 1.130918 1.0350122 150 138 127
-0.88511276 1.1317712 1.0335518 151 139 128
-0.85540855 1.1315106 1.0353529 151 140 129
-0.82473463 1.1305946 1.0362689 152 140 130
-0.79512703 1.1310458 1.0348796 153 142 132
-0.76604933 1.1312064 1.0361937 153 142 133
-0.73574269 1.1307552 1.0342972 153 142 133
-0.70430923 1.130904 1.0358498 153 142 132
-0.67481184 1.130482 1.0351453 152 142 133
-0.64555061 1.1302676 1.0347279 153 142 134
-0.61582053 1.1304824 1.0355548 153 143 134
-0.58484358 1.1299323 1.033543 153 143 134
-0.55480784 1.1302781 1.0365189 152 142 134
-0.52491385 1.1307511 1.0351235 151 141 133
-0.49537316 1.1302793 1.0348684 150 140 132
-0.46403873 1.1305095 1.0347605 149 140 132
-0.43470275 1.1316824 1.0349678 149 140 133
-0.40519381 1.1311971 1.0361881 148 139 132
-0.37596506 1.1308515 1.0350152 147 138 132
-0.34452513 1.1249679 1.0336901 146 137 131
-0.31492242 1.1249251 1.0361426 145 137 131
-0.28528318 1.1247375 1.0346611 145 137 131
-0.25494266 1.1246431 1.0340401 144 137 132
-0.22501586 1.1245749 1.0354781 144 137 132
-0.19454685 1.1246202 1.0347399 144 136 132
-0.16395016 1.1244059 1.0357975 143 136 131
-0.13486268 1.1242746 1.0345598 142 135 130
-0.10526028 1.1241649 1.0347714 141 134 129
-0.074386887 1.1240911 1.0354558 140 133 129
-0.044042788 1.1239207 1.0348594 140 134 130
-0.017033271 1.1238393 1.0370111 139 133 130
0.0032510094 1.1242864 1.0442361 139 133 131
-0.7920208 1.1413004 1.025813 153 142 132
-0.7521655 1.1410695 1.0286422 154 143 134
-0.73355103 1.1414509 1.0290426 154 143 133
-0.70570344 1.1410258 1.0335854 152 141 132
-0.67524934 1.1412212 1.0343804 152 141 132
-0.64409924 1.1409178 1.0357251 153 143 134
-0.61539364 1.1409098 1.0347229 153 143 135
-0.58567619 1.1408459 1.0347503 152 142 134
-0.5531413 1.1406826 1.0358711 152 142 134
-0.52695441 1.1404397 1.0329549 151 141 133
-0.49492693 1.140491 1.0379184 150 140 132
-0.46293271 1.1402119 1.0358227 149 140 133
-0.42959693 1.140034 1.0441194 149 140 133
-0.39729375 1.1402659 1.0431826 148 139 132
-0.3854681 1.1402314 1.0369077 148 139 132
-1.0814706 -1.3618169 1.0638763 100 90 87
-1.0653986 -1.3705236 1.0638384 71 48 42
-1.0351063 -1.373032 1.0636839 78 51 42
-1.0045749 -1.3727221 1.0658501 83 56 46
-0.97658652 -1.3720096 1.0640413 78 53 45
-0.95441341 -1.3714709 1.0629339 79 53 45
-0.87355489 -1.3723106 1.0694246 82 53 42
-0.85463393 -1.3717046 1.0646451 81 53 41
-0.82417715 -1.3700045 1.0648525 82 54 44
-0.79449016 -1.368811 1.0640094 88 60 49
-0.76543051 -1.3692473 1.0642025 89 62 50
-0.7352019 -1.3696325 1.0641152 91 64 52
-0.70483005 -1.3688297 1.0627282 86 59 52
-0.67529756 -1.3691617 1.0648874 87 60 52
-0.64515471 -1.3692019 1.0641023 89 64 53
-0.61435205 -1.369507 1.0647858 90 64 55
-0.58463478 -1.368765 1.0637628 92 66 56
-0.55558157 -1.3692855 1.064297 89 65 56
-0.52560008 -1.3695567 1.0649199 93 68 58
-0.49493572 -1.3693638 1.0655315 96 71 59
-0.46458894 -1.3696392 1.0647728 89 64 56
-0.43528032 -1.3692046 1.0639013 91 65 56
-0.40542492 -1.3692454 1.0657917 91 65 56
-0.37574783 -1.3693365 1.0645142 87 62 54
-0.34526339 -1.3692234 1.0654385 85 60 53
-0.31449136 -1.3690771 1.0659832 86 60 52
-0.28475803 -1.3692358 1.064923 87 61 52
-0.25449508 -1.3690206 1.0648767 86 59 51
-0.22603479 -1.3688148 1.0653594 83 57 49
-0.19596019 -1.3689107 1.0654125 77 55 48
-0.16514918 -1.3685206 1.0650126 74 51 45
-0.13896216 -1.3687289 1.0650526 72 50 42
-1.0813103 -1.332248 1.0760845 113 108 105
-1.0809845 -1.3151073 1.07956 113 107 105
-1.1562603 -0.69416994 1.0756881 119 109 96
-1.1098704 -0.70574319 1.0794458 119 110 98
-1.157424 -0.67322344 1.0654501 120 110 97
-1.1092424 -0.68107921 1.0767372 122 111 100
-1.1574439 -0.64444423 1.0657017 120 110 97
-1.109373 -0.65247375 1.0775372 122 111 98
-1.1573068 -0.61437112 1.0653359 122 112 99
-1.1264222 -0.60393959 1.0790837 124 113 100
-1.1097628 -0.61052924 1.0768558 125 114 101
-1.1574061 -0.58544695 1.0645881 124 113 99
-1.1094538 -0.58279794 1.0764632 126 115 100
-1.1569023 -0.55550522 1.0650047 127 115 101
-1.1183729 -0.55681449 1.0784874 128 116 101
-1.1096305 -0.54609281 1.0771947 130 117 103
-1.1568903 -0.52575433 1.0648515 130 117 102
-1.1267226 -0.52094907 1.0799158 130 118 102
-1.10955 -0.52675509 1.0766966 131 118 103
-1.1567467 -0.49620262 1.0645145 133 120 104
-1.1156561 -0.49974003 1.0766867 133 120 104
-1.1095458 -0.48793307 1.0790989 135 122 106
-1.1568226 -0.46536967 1.0658845 136 123 107
-1.1143849 -0.46618909 1.075842 136 123 106
-1.1098176 -0.46712619 1.0771848 137 123 106
-1.1563538 -0.43562096 1.0641114 139 125 108
-1.114284 -0.43244413 1.0736395 139 125 108
-1.1565676 -0.4054133 1.0650359 141 127 110
-1.1135814 -0.4053925 1.0774152 142 128 111
-1.1099502 -0.39565536 1.051767 143 129 111
-1.1561403 -0.37531769 1.0645878 143 128 110
-1.1148251 -0.37193862 1.0726677 144 129 110
-1.1561519 -0.34471783 1.0649928 142 127 108
-1.1134648 -0.34486198 1.0722669 144 128 109
-1.1560267 -0.31402585 1.0661594 140 125 107
-1.1142223 -0.31461328 1.0690588 143 128 109
-1.1560338 -0.28454319 1.0643888 137 123 106
-1.1139663 -0.28560901 1.0669376 139 125 107
-1.1557716 -0.25495195 1.0644649 136 122 106
-1.1129122 -0.25442928 1.0656565 137 124 106
-1.1557941 -0.22565953 1.0654523 137 123 106
-1.1137748 -0.22518794 1.0694547 138 124 106
-1.1099912 -0.21602026 1.0530412 140 125 106
-1.1555635 -0.19640447 1.0643371 138 124 106
-1.1135345 -0.19458385 1.0675974 140 125 106
-1.1556336 -0.16614628 1.0657642 139 124 106
-1.112581 -0.16505022 1.0672603 141 125 105
-1.1554401 -0.14938213 1.0639116 141 125 106
-1.112564 -0.13593695 1.0652733 143 126 105
-1.1111461 -0.10456013 1.0653586 145 127 105
-1.112368 -0.077221744 1.0677396 149 131 109
-1.1539415 0.20761155 1.0725585 150 132 109
-1.1262187 0.20333526 1.0779471 152 133 110
-1.1540761 0.22522436 1.0656042 150 132 109
-1.1262937 0.22414279 1.078155 151 133 110
-1.1536417 0.25546512 1.0643055 148 131 108
-1.1265317 0.25885087 1.078835 148 131 108
-1.1536753 0.28367788 1.0646513 147 130 108
-1.1164016 0.29067805 1.0683784 148 130 108
-1.153699 0.31403455 1.0657012 148 131 110
-1.1137098 0.31487393 1.0666193 149 132 110
-1.153334 0.34519851 1.0642438 149 133 111
-1.1152836 0.34462011 1.0670861 151 133 111
-1.1532073 0.37601045 1.0650641 157 139 115
-1.1144745 0.37459943 1.0666897 159 139 114
-1.1534374 0.4053584 1.0660574 163 143 118
-1.1144187 0.40421999 1.0670317 165 144 119
-1.1531981 0.43380427 1.0642926 162 143 118
-1.1154728 0.43465897 1.0665569 163 143 119
-1.1529843 0.46243042 1.0651183 160 141 118
-1.115114 0.4640063 1.0666676 159 140 117
-1.1528654 0.49486971 1.0641392 157 139 117
-1.1157328 0.48742718 1.0691825 158 140 118
-1.1529114 0.52603221 1.064918 153 136 115
-1.1263069 0.52569687 1.0779939 154 137 116
-1.152761 0.55465794 1.0649412 150 134 113
-1.1264787 0.55698019 1.0784806 150 134 113
-1.152732 0.58458227 1.065922 146 131 112
-1.1264659 0.584714 1.0784245 147 131 111
-1.1524684 0.61524791 1.0653236 146 131 113
-1.125975 0.60872132 1.0769585 145 130 111
-1.1523067 0.64445949 1.0638797 145 132 115
-1.1264403 0.64017379 1.0783119 146 132 115
-1.1522115 0.67426521 1.0651327 143 130 114
-1.126509 0.67488855 1.0784917 144 131 115
-1.1520327 0.70520699 1.0641955 140 128 113
-1.1266074 0.70615816 1.0787617 141 128 113
-1.1519941 0.7346648 1.0644071 137 126 113
-1.1265936 0.73620385 1.0787008 138 126 113
-1.1517985 0.76486427 1.0640837 134 125 112
-1.1266366 0.76513636 1.0788089 135 124 112
-1.1518888 0.79433858 1.0660222 132 123 111
-1.1267898 0.7999264 1.0792385 132 122 110
-1.1514927 0.82476228 1.0644425 130 120 108
-1.1263283 0.82156271 1.0778608 131 122 109
-1.1514497 0.85475779 1.0656594 128 118 105
-1.1264256 0.85515428 1.0781262 128 118 105
-1.1514058 0.88452357 1.065948 126 117 106
-1.1266392 0.88190675 1.0787388 126 117 105
-1.1511726 0.91535234 1.0642239 125 117 107
-1.1264814 0.91762322 1.0782497 125 118 107
-1.1511534 0.94407207 1.0667011 124 116 106
-1.1262147 0.94514889 1.0774436 124 116 105
-1.1512672 0.97480083 1.069128 124 116 107
-1.1263719 0.97186971 1.0778896 124 115 105
-1.1508944 1.0068606 1.0673214 123 116 107
-1.1267809 1.0028617 1.0790772 123 116 107
-1.1507161 1.0348955 1.0671033 122 115 106
-1.1264271 1.0354979 1.0780106 122 115 106
-1.1508353 1.0655011 1.0665728 120 113 105
-1.126443 1.0621032 1.0780401 121 114 105
-1.1508319 1.0951093 1.0699002 118 111 102
-1.1262313 1.0925384 1.0773948 119 112 104
-1.1487837 1.1223807 1.0650592 121 112 102
-1.1247166 1.1290812 1.0666109 132 122 113
-1.0956155 1.1328321 1.0701441 139 128 118
-1.065214 1.1333179 1.0697601 141 130 120
-1.0357525 1.1319333 1.0692021 144 132 121
-1.0059627 1.1338353 1.0694244 145 133 121
-0.97536343 1.1314145 1.0703529 147 136 125
-0.94535619 1.1321108 1.0695705 150 138 127
-0.91389829 1.1311287 1.0668291 150 139 128
-0.88477224 1.1295233 1.0660344 151 140 130
-0.85463142 1.1294228 1.0645525 150 139 128
-0.82479346 1.1303258 1.0663444 150 138 127
-0.79553825 1.1297468 1.0651309 152 141 130
-0.76484537 1.1297475 1.0641968 153 143 134
-0.7344622 1.1288682 1.0654231 152 142 133
-0.7053206 1.1290672 1.0646727 152 141 133
-0.67489696 1.1292198 1.0651892 151 141 132
-0.64371479 1.1286438 1.0654272 152 142 133
-0.61420226 1.128324 1.064638 152 142 133
-0.584234 1.128793 1.063872 151 141 133
-0.55466622 1.1289177 1.066535 150 141 133
-0.52548766 1.1281697 1.0657802 150 140 131
-0.49493122 1.1284765 1.0644927 149 139 131
-0.46407062 1.1292601 1.0633867 148 139 132
-0.43447286 1.1295618 1.065343 148 139 131
-0.40502566 1.1305484 1.065484 148 139 132
-0.37705925 1.1292933 1.0643933 147 139 132
-0.34562695 1.1252676 1.0646833 146 138 132
-0.31456563 1.1250508 1.0647415 145 137 130
-0.28472018 1.1249958 1.0649914 144 137 131
-0.25425166 1.1248928 1.0643274 143 136 131
-0.22474125 1.1248376 1.0659641 143 136 132
-0.19482578 1.1247855 1.065478 143 136 131
-0.16505471 1.1245705 1.0650718 142 135 130
-0.13544324 1.1245281 1.0647776 141 135 130
-0.10553723 1.1244094 1.0647063 140 133 128
-0.075472012 1.1242261 1.0651366 139 133 128
-0.045423083 1.1241467 1.0639443 139 133 129
-0.014456008 1.1239493 1.0646383 138 133 130
0.0088675441 1.1239104 1.0682242 138 133 130
-1.115082 1.1439877 1.0723896 137 126 117
-1.1022578 1.1447169 1.0773615 135 127 118
-1.0627315 1.1439825 1.0772049 139 129 119
-1.030944 1.1439457 1.0779426 143 131 120
-1.0103165 1.142814 1.0781691 141 129 117
-0.97453624 1.1432251 1.0760527 146 136 125
-0.91311389 1.142437 1.0751973 152 141 132
-0.85391474 1.1425362 1.0771492 149 139 129
-0.82085317 1.1435161 1.0769817 150 138 126
-0.801642 1.1419514 1.0689812 151 140 129
-0.75086659 1.14169 1.0751642 153 142 132
-0.74193048 1.1414146 1.0662124 152 142 133
-0.70092392 1.1414825 1.0635338 151 142 133
-0.67266351 1.1411954 1.0643024 152 142 133
-0.64435959 1.1411221 1.0661322 152 142 133
-0.61477691 1.1406462 1.0626255 152 141 132
-0.58593541 1.1410165 1.0650698 150 141 132
-0.55608714 1.1409473 1.0639794 150 140 133
-0.52645749 1.1407444 1.0635535 149 139 131
-0.49521935 1.1403035 1.0675777 149 138 130
-0.46721029 1.1403166 1.0698045 148 138 131
-0.43761459 1.1403037 1.066666 147 138 131
-0.4093141 1.1402003 1.0625808 148 139 131
-0.37887403 1.1405467 1.057056 147 139 133
-1.0822396 -1.3618821 1.0876031 107 103 103
-1.0656861 -1.3633375 1.0920912 100 94 95
-1.0352714 -1.3635767 1.092157 103 97 99
-1.0052145 -1.3636565 1.0932406 106 101 104
-0.97472209 -1.3636522 1.0927668 103 97 99
-0.95406455 -1.3610414 1.0923382 105 101 105
-0.90789509 -1.3572308 1.0958647 113 114 118
-0.88426143 -1.3647835 1.0960836 102 95 96
-0.85425389 -1.3635608 1.0945765 99 91 91
-0.82485133 -1.3622221 1.0949706 101 94 96
-0.79455423 -1.3633963 1.0945523 103 95 96
-0.76540697 -1.3630323 1.0951809 107 99 100
-0.73533714 -1.3629434 1.0959274 110 104 105
-0.70533997 -1.3630742 1.0957059 108 101 104
-0.67462766 -1.3629478 1.0964279 111 104 107
-0.64487886 -1.363211 1.0967256 111 104 107
-0.61540157 -1.3631816 1.0970647 114 108 112
-0.58509135 -1.3633038 1.0970254 113 106 110
-0.55496716 -1.3637879 1.0974305 111 104 106
-0.52538812 -1.3633788 1.0975686 114 107 110
-0.49589905 -1.3633543 1.0988162 115 110 115
-0.46488491 -1.3635504 1.0983543 113 107 112
-0.43477139 -1.3637968 1.0984021 111 105 110
-0.40512666 -1.3640227 1.0990099 105 102 107
-0.37485579 -1.3633286 1.0991776 103 99 103
-0.34429777 -1.363824 1.0994933 99 96 100
-0.31513819 -1.3640877 1.0999811 105 97 98
-0.28574231 -1.3637781 1.1000346 103 95 97
-0.25558516 -1.3637719 1.0999898 102 92 93
-0.22473992 -1.3638816 1.1007273 100 91 93
-0.19416644 -1.3630397 1.1015258 97 91 93
-0.16550027 -1.363207 1.1011244 93 85 86
-0.13961889 -1.3636241 1.1011444 87 78 78
-1.0852776 -1.3354553 1.0881127 115 112 113
-1.0643466 -1.3345546 1.0931127 118 118 121
-1.0352322 -1.3351443 1.0934672 120 122 128
-1.0050706 -1.3351536 1.0936086 119 121 128
-0.97460318 -1.3366278 1.0942897 117 119 125
-0.95176476 -1.3363483 1.092562 116 118 123
-0.90958446 -1.3424811 1.0946705 114 114 118
-0.88517559 -1.3408554 1.0988954 112 112 115
-0.85447371 -1.3360467 1.0974356 112 112 116
-0.82595438 -1.3348092 1.0971688 117 119 125
-0.79605269 -1.3378544 1.0977266 120 124 132
-0.76602119 -1.3384527 1.0973275 121 125 134
-0.73492593 -1.3380308 1.0977581 125 130 139
-0.70449615 -1.3389511 1.0988894 128 133 142
-0.67479259 -1.337692 1.0992564 126 131 140
-0.64429849 -1.3382345 1.1004395 127 133 142
-0.614649 -1.3363646 1.1010914 131 136 147
-0.58488643 -1.3350753 1.1015807 131 137 148
-0.55400395 -1.335227 1.1023608 133 139 151
-0.52411538 -1.335777 1.1028088 133 141 153
-0.49444044 -1.3352438 1.1030889 133 140 152
-0.46452025 -1.3353838 1.1038133 133 139 151
-0.43473315 -1.3359249 1.1042546 133 139 151
-0.40537411 -1.3350737 1.1047471 132 138 150
-0.37523514 -1.3346975 1.1050781 131 137 148
-0.34501275 -1.3345833 1.1056408 130 136 146
-0.31567624 -1.3354992 1.1062198 129 134 144
-0.28494993 -1.3350505 1.106568 127 132 141
-0.25434569 -1.3348085 1.107119 126 130 139
-0.22545969 -1.3350579 1.1076328 124 128 136
-0.19580905 -1.3349464 1.1081254 121 124 132
-0.16478126 -1.3339499 1.1087086 117 119 125
-0.13778694 -1.3346729 1.109163 113 113 118
-1.0839095 -1.3080206 1.0881701 118 118 122
-1.0627925 -1.3072011 1.0913895 119 120 125
-1.0359745 -1.3078605 1.0927724 118 120 126
-1.0081413 -1.3090372 1.0908132 116 119 125
-0.97623193 -1.3133622 1.090364 118 120 126
-0.95335472 -1.3147628 1.0903428 117 118 124
-0.84888625 -1.3135509 1.0928974 116 118 124
-0.82589018 -1.3126137 1.0934048 119 122 129
-0.7968415 -1.3148732 1.0937788 122 126 135
-0.67731488 -1.3173717 1.0963085 130 136 146
-0.64395112 -1.316656 1.0973552 131 136 147
-0.61396664 -1.3134513 1.097984 131 137 149
-0.58330584 -1.3130418 1.0996288 130 136 147
-0.55388033 -1.3106112 1.1003668 132 138 150
-0.52548432 -1.3089941 1.1018052 130 137 148
-0.49390382 -1.307328 1.10238 131 138 149
-0.46479002 -1.3050867 1.1033959 133 139 151
-0.43510526 -1.3050567 1.1040286 133 140 151
-0.40572596 -1.3049304 1.1046199 133 140 152
-0.37514707 -1.3037052 1.1049403 133 139 151
-0.34456766 -1.3048584 1.1055671 132 138 149
-0.31571308 -1.3048434 1.1060286 130 136 146
-0.2854121 -1.3044029 1.1064802 128 133 143
-0.25494957 -1.304535 1.1070313 126 130 139
-0.22568114 -1.3051058 1.1074985 124 127 135
-0.19507785 -1.3044729 1.1079499 121 123 130
-0.16443364 -1.3048286 1.1084011 117 118 124
-0.13707572 -1.3047959 1.1089178 113 113 117
-0.51464605 -1.2666545 1.0997849 133 139 150
-0.49109268 -1.2724788 1.1018863 131 138 149
-0.4643136 -1.2741374 1.1034626 134 140 151
-0.43478987 -1.2744019 1.1039499 134 140 152
-0.40524572 -1.2757434 1.1043563 133 140 152
-0.37544155 -1.273986 1.1047086 133 140 152
-0.34488553 -1.2751677 1.1053857 132 138 150
-0.31512725 -1.2754397 1.1058035 130 136 147
-0.28474009 -1.2749327 1.1061757 128 133 143
-0.25429061 -1.2751678 1.1069008 125 129 138
-0.22527783 -1.2755966 1.1072826 123 126 133
-0.19471389 -1.27525 1.1077569 120 122 128
-0.16445048 -1.2751595 1.1083301 116 117 122
-0.1368026 -1.2755399 1.1087735 113 112 116
-0.52157247 -1.2422545 1.1001685 131 136 147
-0.49411577 -1.2446687 1.1024759 132 138 149
-0.46430826 -1.244699 1.103196 134 140 151
-0.43509507 -1.2451301 1.1036404 134 140 152
-0.4056311 -1.2459222 1.1041805 133 140 152
-0.3751151 -1.2453673 1.104542 133 139 151
-0.34519723 -1.2456464 1.1051849 132 138 150
-0.31563213 -1.2449708 1.1056615 130 136 147
-0.28517228 -1.2445743 1.1059365 128 133 143
-0.25547439 -1.2452829 1.1065136 125 129 138
-0.22519411 -1.2449296 1.1070834 123 125 132
-0.19480762 -1.2445974 1.1074833 119 121 127
-0.16514389 -1.2454107 1.1080251 116 116 121
-0.135865 -1.2446578 1.1085184 113 112 115
-0.52136034 -1.2251126 1.1039745 132 135 142
-0.49471873 -1.2241265 1.1031499 135 138 146
-0.46382007 -1.2250943 1.1042836 135 138 146
-0.43478554 -1.2245978 1.1044945 135 137 145
-0.40640455 -1.2248311 1.1048155 134 137 145
-0.37490389 -1.2251467 1.105141 134 137 144
-0.34549654 -1.2254305 1.1053609 133 136 144
-0.31609255 -1.2246994 1.1060649 132 134 140
-0.28495601 -1.2237307 1.1067284 129 129 134
-0.25431362 -1.2243522 1.1066844 126 127 132
-0.22662807 -1.2236005 1.1071868 124 123 125
-0.19484548 -1.224424 1.1076009 121 120 124
-0.16358109 -1.2241743 1.1079295 117 116 118
-0.13775447 -1.2247235 1.1085571 116 114 115
-1.1067957 -1.1831897 1.1063706 89 87 77
-1.1080443 -1.1599537 1.106122 101 96 89
-1.1084797 -1.1243384 1.104049 102 96 90
-1.1082782 -1.0943606 1.1030698 102 96 89
-1.1085216 -1.0658255 1.1029884 102 97 90
-1.1084298 -1.0350347 1.1012579 104 98 91
-1.1085852 -1.0047345 1.101916 106 100 93
-1.1086947 -0.9769839 1.1015897 107 102 95
-1.108701 -0.94631767 1.1012708 108 103 96
-1.1089426 -0.91679609 1.1019862 108 102 94
-1.1507024 -0.87519002 1.0993668 118 119 118
-1.1100495 -0.89563751 1.1091927 108 101 92
-1.1091775 -0.88626152 1.1015719 109 102 93
-1.1495191 -0.85437727 1.0992864 118 119 119
-1.1320795 -0.85341394 1.09949 115 114 112
-1.1090673 -0.85659206 1.1021301 110 104 96
-1.149668 -0.82552791 1.0990095 119 120 121
-1.1271491 -0.8234902 1.1002294 118 117 116
-1.1093067 -0.82608026 1.0986587 111 105 96
-1.1481489 -0.79864281 1.0988146 120 121 122
-1.1238114 -0.79393733 1.1008037 120 120 119
-1.1089721 -0.7937721 1.0982962 115 109 102
-1.142562 -0.77823585 1.0991492 123 123 123
-1.1222525 -0.76786894 1.1019183 118 116 112
-1.1059526 -0.76332027 1.097802 118 114 108
-1.1156214 -0.73767692 1.1063498 123 120 114
-1.1011524 -0.73512065 1.0999284 123 119 115
-1.1520315 -0.69829458 1.0942914 125 120 114
-1.124547 -0.69944024 1.0978868 128 124 120
-1.0984048 -0.70211852 1.0980054 127 123 119
-1.067463 -0.69913256 1.0978528 131 129 127
-1.035215 -0.69714212 1.0982714 132 129 125
-1.012532 -0.69701058 1.0988063 130 126 122
-0.94447887 -0.69867587 1.1010375 128 123 116
-0.91492653 -0.69920892 1.1020852 128 122 115
-0.88522261 -0.69982803 1.1031469 129 123 116
-0.85477024 -0.70023555 1.1040847 130 125 119
-0.8240425 -0.69930887 1.1051098 130 126 121
-0.79482162 -0.69912082 1.1060597 129 126 121
-0.76471257 -0.69974941 1.1070176 131 128 123
-0.73461753 -0.70016497 1.1080279 132 130 126
-0.70494664 -0.70056558 1.1090007 131 129 126
-0.68167531 -0.70047259 1.109807 132 130 127
-0.65906638 -0.70120686 1.1098584 135 133 130
-1.1511704 -0.67479265 1.0940112 125 120 113
-1.1238614 -0.67475992 1.0979128 129 125 120
-1.0978959 -0.67511487 1.0981274 131 128 124
-1.0667049 -0.67537409 1.0979722 133 132 129
-1.0346413 -0.67464733 1.098084 133 130 126
-1.0123494 -0.67490143 1.0986779 131 127 122
-0.94492871 -0.67442119 1.1009802 128 122 114
-0.91496611 -0.6749869 1.101933 128 121 113
-0.88516039 -0.67581236 1.1030588 129 123 115
-0.85506803 -0.67619604 1.1039959 131 125 118
-0.82479745 -0.67526174 1.1050665 133 128 122
-0.79464662 -0.6734243 1.1058847 132 127 122
-0.76494527 -0.67416143 1.1069499 132 128 123
-0.73502105 -0.67500281 1.107865 134 131 127
-0.70500076 -0.67560112 1.1089882 133 130 126
-0.6763556 -0.67589688 1.1095229 134 131 127
-0.65969241 -0.68887013 1.1099778 134 132 129
-1.1515844 -0.6446864 1.0937866 129 124 118
-1.1233945 -0.64472926 1.0983239 131 127 123
-1.0969899 -0.64537418 1.0994506 134 131 127
-1.0650525 -0.64442712 1.098138 135 133 130
