ply
format ascii 1.0
comment PCL generated
element vertex 504
property float x
property float y
property float z
property uchar red
property uchar green
property uchar blue
property float nx
property float ny
property float nz
property float curvature
element camera 0
property float view_px
property float view_py
property float view_pz
property float x_axisx
property float x_axisy
property float x_axisz
property float y_axisx
property float y_axisy
property float y_axisz
property float z_axisx
property float z_axisy
property float z_axisz
property float focal
property float scalex
property float scaley
property float centerx
property float centery
property int viewportx
property int viewporty
property float k1
property float k2
end_header
-0.91166091 -0.16543576 1.1089174 153 139 121 -0.06832464 -0.01708216 0.99751687 0.037633073
-0.88379627 -0.16486332 1.1085458 155 140 122 0.0080965497 -0.022533121 0.9997133 0.042744711
-0.85496628 -0.16476779 1.1078589 157 142 124 -0.0090764994 -0.0012930856 0.99995798 0.042965956
-0.82582414 -0.16555107 1.1090167 157 141 123 -0.022304481 0.0033459009 0.99974561 0.036701933
-0.79518235 -0.16505456 1.1096095 156 141 122 -0.025557876 0.0061674244 0.99965429 0.034084193
-0.76473773 -0.16526732 1.1107749 156 141 121 -0.02753358 0.0083900774 0.99958569 0.031522892
-0.7354219 -0.16557862 1.1115429 157 142 124 -0.022776447 0.0087092333 0.99970263 0.029278928
-0.70501715 -0.16529109 1.1120548 158 144 126 -0.02546813 0.0077394233 0.99964565 0.026672937
-0.67463553 -0.16520652 1.1130468 157 144 128 -0.027706912 0.0069087534 0.99959224 0.024818666
-0.64515615 -0.16532259 1.1138589 153 141 125 -0.01025247 0.0026019725 0.99994403 0.020982504
-0.61486864 -0.1657322 1.1132474 152 142 128 -0.0036461318 -0.0011929104 0.99999267 0.017983586
-0.58401155 -0.16497028 1.1139923 155 146 135 -0.062596992 0.0053131669 0.99802476 0.012436314
-0.55524474 -0.16526701 1.1171441 154 146 137 -0.045856696 0.016596897 0.99881017 0.0033334966
-0.52491593 -0.16507357 1.1172506 153 146 137 -0.023778969 0.0042287335 0.99970829 3.8866965e-06
-0.49473566 -0.16514204 1.117964 151 145 137 -0.023007622 0.0049754516 0.9997229 4.5477991e-06
-0.4649913 -0.16523261 1.1186515 149 144 137 -0.022348452 0.0053201555 0.99973607 2.9417156e-06
-0.43520921 -0.16528712 1.1193465 147 142 136 -0.022887414 0.0052906126 0.99972403 1.7830743e-06
-0.40512052 -0.16529253 1.1200547 146 142 137 -0.022537295 0.0048366608 0.99973428 1.3030731e-06
-0.37492204 -0.16549569 1.1207123 145 142 137 -0.022888947 0.0045894221 0.99972749 1.8747303e-06
-0.34499589 -0.16499022 1.121435 144 141 138 -0.023859685 0.0049215844 0.99970323 9.5644089e-07
-0.31481281 -0.16550548 1.1221653 142 140 138 -0.022893066 0.0057546226 0.99972135 8.0954277e-07
-0.28495249 -0.1649415 1.1228243 141 140 138 -0.022180526 0.0057886029 0.9997372 2.3060343e-07
-0.25526941 -0.16519699 1.1234818 139 139 137 -0.022683201 0.0052026138 0.99972916 4.8506939e-07
-0.2252131 -0.16533719 1.1241677 138 138 136 -0.023232698 0.0048973239 0.99971807 3.249171e-07
-0.19526105 -0.16542147 1.1248769 138 138 138 -0.022906829 0.005103563 0.99972457 4.5487147e-07
-0.16502522 -0.16476682 1.1255361 138 139 139 -0.032262545 0.0078789787 0.99944836 2.4990541e-05
-0.13688211 -0.16531032 1.1267256 137 139 138 -0.034552149 0.009835328 0.99935448 1.8296774e-05
-0.1052509 -0.16516048 1.1275568 137 138 139 -0.020123636 0.009420651 0.99975312 1.1088476e-05
-0.075294532 -0.16508766 1.1280077 136 138 139 -0.027920065 0.0076865256 0.99958062 2.2621678e-05
-0.04936019 -0.16618973 1.129066 137 140 141 -0.094236821 0.010149774 0.99549806 7.1670115e-07
0.3828201 -0.16132179 1.1383677 129 134 137 0.077284031 -0.10027684 0.99195349 0.018370211
0.3920584 -0.16393967 1.1319435 120 124 127 0.71488494 -0.11284401 0.69007665 0.037462622
0.46931192 -0.16570275 1.1163676 105 106 111 -0.31771442 0.0082009109 0.94815099 0.0057680621
0.49489939 -0.16541715 1.1246735 161 171 186 -0.13146329 0.0085864253 0.99128383 0.0076232986
0.52438319 -0.16556203 1.1249177 119 128 138 -0.020128718 0.0085282084 0.99976104 6.2077891e-07
0.55493808 -0.1658117 1.1255322 77 86 89 -0.018797977 0.008493226 0.99978721 4.7297164e-07
0.58556777 -0.16554061 1.1260641 67 77 83 -0.019146375 0.0083669443 0.99978167 5.07918e-07
0.61516589 -0.165525 1.1266454 54 60 63 -0.019538134 0.0081842756 0.99977559 7.9129472e-07
0.64452076 -0.1659297 1.1271937 47 51 50 -0.020368395 0.0082741603 0.9997583 1.0065359e-06
0.6745078 -0.16563608 1.1278567 51 53 48 -0.019924475 0.0080392007 0.99976915 1.5493538e-06
0.7052502 -0.16575705 1.1284215 55 58 50 -0.018946929 0.0083165457 0.9997859 1.0100174e-06
0.73494059 -0.16567798 1.1290344 57 58 52 -0.01961728 0.0086791525 0.99976987 1.0522464e-06
0.76398712 -0.16463462 1.1296048 65 65 59 -0.020389829 0.0090929801 0.99975073 1.6325265e-06
0.7943849 -0.16471642 1.1302767 59 59 55 -0.019657582 0.0089963768 0.99976629 2.0478815e-06
0.82522786 -0.16472822 1.1308059 62 63 57 -0.018768925 0.0095751435 0.99977797 1.5544496e-06
0.85477006 -0.16510864 1.1313876 58 58 53 -0.020107364 0.0092127668 0.99975538 1.0993158e-06
0.88403058 -0.16443257 1.1319746 77 74 66 -0.021949179 0.0089788269 0.99971879 1.5834349e-06
0.91481882 -0.16471426 1.1327143 79 75 69 -0.019565398 0.0088372612 0.99976951 3.9030442e-06
0.94536191 -0.16439654 1.1331928 52 55 59 -0.016750017 0.0090153683 0.99981904 1.6474388e-06
0.97469324 -0.16497849 1.1337361 53 56 61 -0.020575002 0.0084829144 0.99975234 2.7476697e-06
1.0039017 -0.16496438 1.1344049 47 47 44 -0.024517857 0.0086860284 0.99966168 1.871711e-06
1.0344875 -0.16475233 1.1351906 48 47 42 -0.019343536 0.0088418899 0.9997738 9.2629589e-06
1.0654716 -0.16491136 1.1355847 48 46 42 -0.015964467 0.0088486923 0.99983341 3.2376624e-06
1.0949634 -0.16490859 1.1361877 49 47 42 -0.019670444 0.0092060836 0.99976414 4.7727876e-06
1.124204 -0.16511281 1.1367934 52 49 43 -0.022327974 0.0093382271 0.9997071 6.3199086e-06
1.1549841 -0.16470312 1.1375563 54 50 45 -0.019353006 0.0084717898 0.99977684 1.1680548e-05
1.1858157 -0.16459584 1.1376944 60 56 47 -0.030826475 0.015753845 0.99940062 0.00073953695
1.2138067 -0.16418038 1.1391548 66 62 50 -0.030545542 0.012919945 0.99944985 0.0013755444
1.2443324 -0.1651458 1.1397908 70 64 51 -0.014366306 0.0072281603 0.99987066 0.0016170561
1.2743632 -0.16515335 1.1399757 73 65 53 -0.017251108 0.0094790878 0.99980623 0.0015934635
1.3047603 -0.16501929 1.1403261 73 65 51 -0.011933572 0.0079237456 0.99989742 0.0014490824
1.3317308 -0.16436931 1.1403471 80 71 57 -0.0066886297 0.0071448199 0.99995208 0.0012914093
1.3550259 -0.1627537 1.1406764 78 69 58 -0.024081346 0.0084090531 0.99967462 0.00098631531
1.675181 -0.16588436 1.1393732 51 40 31 0.26643619 0.0070191594 0.96382701 0.0087099243
1.6934114 -0.16470766 1.132604 41 27 16 0.18859424 0.0084864376 0.98201841 0.0082383053
1.7233845 -0.16520678 1.1329868 44 30 19 -0.14374667 0.011514967 0.98954755 0.0018843263
-1.1074873 -0.13379234 1.1000376 146 134 118 -0.32044086 -0.040872477 0.94638634 0.10602985
-1.0949099 -0.13471214 1.1085385 151 139 126 -0.13605924 -0.017160252 0.99055207 0.050396789
-1.0649157 -0.13465673 1.1071731 154 143 129 -0.006401943 -0.022700563 0.99972183 0.039165758
-1.0340785 -0.13445087 1.1076138 156 144 129 -0.023351992 -0.016086889 0.99959785 0.039766219
-1.0047481 -0.13536578 1.1093243 157 143 126 -0.033451449 -0.0065121287 0.99941915 0.037445482
-0.98074836 -0.13481231 1.1098237 154 139 121 0.066194005 -0.0038070395 0.99779952 0.030942889
-0.91174155 -0.13480745 1.1109204 154 138 117 -0.086271919 -0.036413584 0.99560595 0.030809121
-0.88503969 -0.13457984 1.1099423 158 142 121 0.041579951 -0.034387834 0.9985432 0.035745572
-0.85438049 -0.13432883 1.1077445 158 141 120 -0.036197159 -0.04425608 0.99836427 0.040539205
-0.82502937 -0.13466981 1.110293 158 141 119 -0.051059395 -0.08545424 0.99503291 0.032856349
-0.7953912 -0.1340566 1.1098694 159 141 120 0.014403154 -0.091572762 0.99569422 0.031750862
-0.76486826 -0.13478893 1.1093173 159 142 120 0.0053874999 -0.035216644 0.99936515 0.032079559
-0.73529786 -0.1350465 1.1105949 160 144 124 -0.023690993 0.0012864028 0.99971849 0.029630033
-0.70486253 -0.13472277 1.1116482 161 146 127 -0.025566563 0.0043285461 0.99966377 0.026108863
-0.67443192 -0.13467042 1.1127479 159 145 127 -0.027380226 0.0041314191 0.99961656 0.024254758
-0.64530015 -0.13504332 1.1133785 157 144 128 -0.021949198 0.0050001349 0.99974656 0.022142144
-0.61491305 -0.13493055 1.1134701 157 145 130 -0.00012848144 0.0020438372 0.99999791 0.017990662
-0.58438748 -0.13490041 1.1135919 156 146 134 -0.054825522 0.0034309078 0.99849004 0.013197
-0.55511069 -0.13507514 1.1166973 155 146 136 -0.050475314 0.011686474 0.99865693 0.0038905675
-0.52487266 -0.1346624 1.1172622 154 146 137 -0.022656085 0.004328175 0.99973392 3.7207533e-06
-0.49465957 -0.13519381 1.1179564 152 145 137 -0.022315016 0.0048654112 0.99973917 4.4561461e-06
-0.46513233 -0.13496992 1.1185802 151 145 137 -0.022750942 0.0055211568 0.99972594 3.1005877e-06
-0.43534774 -0.13488019 1.1192491 149 144 138 -0.023556415 0.0050371606 0.99970984 1.8171172e-06
-0.40506303 -0.13518761 1.1199577 147 143 137 -0.022867352 0.0046788473 0.99972755 9.7423606e-07
-0.37487587 -0.13493715 1.120633 146 143 138 -0.022745714 0.0046373676 0.99973053 1.1865233e-06
-0.34515804 -0.13485359 1.1213197 144 141 138 -0.023270262 0.0052029775 0.99971569 6.3807579e-07
-0.31489301 -0.13523008 1.1220059 143 141 138 -0.022504291 0.0054292441 0.99973202 6.8448423e-07
-0.28454855 -0.13500725 1.1226554 142 140 138 -0.022956209 0.0051955823 0.99972296 7.237162e-07
-0.25488427 -0.1350414 1.1233791 140 139 137 -0.023159683 0.0046327203 0.99972105 7.9532896e-07
-0.22528772 -0.13513507 1.1240556 138 138 137 -0.022468446 0.0049572834 0.99973524 1.026313e-06
-0.19493674 -0.13492979 1.1247469 138 139 138 -0.022518126 0.0057112472 0.99973011 7.1460255e-07
-0.16481929 -0.13488291 1.1254216 137 138 138 -0.028214268 0.0079293801 0.99957043 1.0133692e-05
-0.13694687 -0.13464974 1.1263379 137 139 139 -0.032745618 0.0088132489 0.99942487 5.2814571e-06
-0.10438842 -0.1353392 1.1273711 137 139 139 -0.022877652 0.0084519954 0.99970257 1.6586726e-05
-0.074181698 -0.13499594 1.1278338 137 139 140 -0.026628809 0.0089714648 0.99960512 2.1287209e-05
-0.050014567 -0.13404781 1.1287224 137 139 141 -0.083395191 0.010745641 0.99645859 8.4983585e-06
0.38133982 -0.13188949 1.1382755 130 135 138 0.069891915 -0.018259138 0.99738747 0.046858907
0.39278966 -0.13524438 1.1317085 119 123 126 0.71295816 0.019362086 0.70093924 0.034260582
0.46940222 -0.13490365 1.1162167 108 109 115 -0.3179006 0.008765866 0.94808352 0.0056704679
0.49502325 -0.13533868 1.1245276 161 171 186 -0.13024263 0.0089110704 0.99144208 0.0075448891
0.52423358 -0.13529411 1.124639 116 126 134 -0.020058926 0.0093659693 0.99975491 5.7580905e-07
0.55480248 -0.13527723 1.1252441 69 79 83 -0.018878857 0.0095540751 0.99977612 5.5885749e-07
0.58559251 -0.13508226 1.1258019 63 72 78 -0.019162176 0.0093913991 0.99977225 7.0622332e-07
0.61499661 -0.13508824 1.1264226 52 58 62 -0.019833507 0.0089236898 0.99976349 1.1571475e-06
0.64444941 -0.13549805 1.1269928 47 51 49 -0.020218953 0.008814062 0.99975669 1.4005763e-06
0.67497164 -0.13498905 1.1276424 47 49 44 -0.019805182 0.0090390714 0.99976301 1.8411916e-06
0.70514268 -0.13534935 1.1281826 50 53 46 -0.018755747 0.0094985599 0.99977899 8.2797823e-07
0.73473591 -0.13525462 1.1287267 52 54 48 -0.019474996 0.0094555216 0.99976563 7.0402234e-07
0.76417488 -0.1344796 1.1292799 59 61 54 -0.020359743 0.0099864537 0.99974287 7.4407518e-07
0.79459161 -0.1340383 1.1299109 61 62 56 -0.019164134 0.010426298 0.999762 1.105841e-06
0.82520795 -0.1342009 1.13045 64 63 56 -0.018404074 0.010653934 0.99977386 4.8152896e-07
0.85476118 -0.13441902 1.1310391 73 71 63 -0.020542828 0.010483664 0.99973398 4.2128113e-07
0.88408196 -0.13409501 1.1316812 82 79 70 -0.022043264 0.010722618 0.99969953 1.5207759e-07
0.91473663 -0.13412538 1.1323588 66 64 61 -0.019621875 0.010428143 0.99975306 1.7818887e-06
0.94550252 -0.13404244 1.1328661 51 53 55 -0.017023869 0.010512116 0.99979985 6.2300745e-07
0.9744547 -0.13450155 1.1333638 49 50 50 -0.020551933 0.010401205 0.9997347 2.7199751e-06
1.0042113 -0.13436024 1.1340801 45 44 41 -0.024560366 0.010343353 0.99964482 5.0470373e-07
1.0348529 -0.1341453 1.1348494 46 44 41 -0.01897355 0.010110076 0.99976885 6.467309e-06
1.0652403 -0.13428749 1.1352453 47 45 40 -0.015846618 0.010530312 0.99981898 1.6502225e-06
1.094715 -0.13416915 1.1357647 48 46 41 -0.019215761 0.011033461 0.99975449 2.4057308e-06
1.1239893 -0.13424826 1.1363323 50 47 42 -0.022196803 0.011558226 0.99968678 3.0248534e-06
1.1548656 -0.13421281 1.1371112 52 48 42 -0.020164572 0.011767779 0.99972743 5.4615648e-06
1.1856896 -0.13430679 1.1375235 61 57 47 -0.02472977 0.010671884 0.99963719 0.00031534609
1.2147889 -0.13443121 1.1388495 72 66 52 -0.03452735 0.015125096 0.99928927 0.0010287826
1.2439867 -0.13461065 1.1397054 74 66 53 -0.018568436 0.012218229 0.99975294 0.0014816683
1.274057 -0.13534112 1.1397618 79 70 56 -0.012269994 0.0063158125 0.99990475 0.0014590331
1.3045388 -0.1351251 1.1401972 83 72 57 -0.015490187 0.0067441273 0.99985725 0.0014013668
1.3334508 -0.13449723 1.1404846 78 68 54 -0.0097859064 0.0049696425 0.99993974 0.0012354747
1.3576381 -0.13384084 1.1407738 76 66 53 -0.01435484 0.0067177252 0.99987441 0.00091560866
1.6752412 -0.13423795 1.1390959 51 41 34 0.2622405 0.0079094023 0.96497011 0.0090402327
1.6941506 -0.13421217 1.1321834 42 28 16 0.18177775 0.011819786 0.98326862 0.0083609978
1.7239501 -0.13417418 1.1325881 46 33 18 -0.13785687 0.017498259 0.99029756 0.0018645696
-1.107932 -0.10491277 1.1002038 147 133 115 -0.32191399 -0.015598201 0.94664043 0.096711263
-1.0942069 -0.10450154 1.1084515 152 139 122 -0.13303328 -0.0070157531 0.99108672 0.04171592
-1.0647588 -0.10413232 1.1070271 154 140 124 -0.0048438204 -0.011053486 0.99992716 0.032295618
-1.0352012 -0.10500654 1.1072509 156 142 125 -0.017461421 -0.0063690078 0.99982727 0.033379044
-1.0053974 -0.10520653 1.1086198 157 142 123 -0.020898722 -0.00034691757 0.99978155 0.032909233
-0.98144096 -0.10509324 1.1086725 156 140 120 0.061771441 -0.0022874295 0.9980877 0.027618514
-0.91161472 -0.10500079 1.1139711 156 139 116 -0.097675741 -0.023073623 0.99495077 0.024630135
-0.88485014 -0.10480727 1.1109424 159 140 117 0.069970906 -0.028582482 0.99713945 0.028283628
-0.85476345 -0.10411645 1.1085227 160 141 117 -0.049888991 -0.014514866 0.9986493 0.034064639
-0.82530737 -0.10450094 1.116358 161 142 118 -0.10429589 -0.04573179 0.99349433 0.025590515
-0.7951169 -0.1042218 1.1157576 161 143 119 0.026110105 -0.1038456 0.99425066 0.017319333
-0.76510429 -0.10412215 1.1125672 161 143 120 0.05536598 -0.085940354 0.99476069 0.026204294
-0.73558033 -0.10430091 1.1108361 162 144 122 0.014967905 -0.037028387 0.99920213 0.028858893
-0.70506173 -0.10430473 1.111751 161 144 123 -0.025038509 0.0022256966 0.99968404 0.026145119
-0.67461944 -0.10434571 1.1128132 161 145 125 -0.027436431 0.0030452532 0.99961889 0.024056738
-0.64525181 -0.10488349 1.1134249 160 146 128 -0.022320781 0.0032690999 0.99974549 0.022131227
-0.61483717 -0.10434063 1.1134025 159 146 130 -0.0014894211 0.0031681901 0.99999386 0.018026633
-0.58314914 -0.10517558 1.1136246 158 147 133 -0.058055118 0.00079586753 0.99831307 0.013675793
-0.55511212 -0.1047025 1.1172265 156 147 135 -0.055737618 0.0012739541 0.99844462 0.0046569514
-0.52482921 -0.10439305 1.1170257 155 147 136 -0.022710236 0.0064599384 0.99972123 2.5104725e-06
-0.49475664 -0.10490192 1.1176279 154 147 138 -0.02218491 0.0058845859 0.99973655 4.1326302e-06
-0.46489981 -0.10473783 1.118333 153 147 139 -0.022864571 0.0053575542 0.99972421 3.4473542e-06
-0.43513465 -0.10486028 1.1190315 151 146 140 -0.023409911 0.0050633326 0.99971312 2.1759899e-06
-0.40508336 -0.10483456 1.1197919 149 145 139 -0.022720885 0.005638456 0.99972594 6.0986503e-07
-0.37477714 -0.10475624 1.1204249 148 144 140 -0.022502206 0.0059834803 0.99972886 4.4113747e-07
-0.34513682 -0.10509759 1.1211324 146 143 139 -0.023415297 0.0057168449 0.99970949 3.543598e-07
-0.31497374 -0.10472739 1.1218259 143 141 137 -0.02212893 0.005442752 0.9997403 3.4605773e-07
-0.28483868 -0.1048097 1.1224862 141 140 137 -0.023301668 0.005252792 0.99971467 8.5718102e-07
-0.25500017 -0.10478603 1.123246 140 139 137 -0.023247803 0.0057822648 0.999713 9.9525369e-07
-0.2250793 -0.10485467 1.1238675 140 140 138 -0.021732282 0.0060862983 0.99974531 6.2180118e-07
-0.19501993 -0.10462941 1.1245152 138 139 138 -0.022747906 0.0060750754 0.99972278 4.6628986e-07
-0.16490579 -0.10512347 1.1252099 138 139 138 -0.024879185 0.0075950641 0.99966162 5.0404005e-06
-0.13624091 -0.10431903 1.1259856 138 139 139 -0.030768193 0.0090038218 0.99948597 7.929586e-06
-0.105413 -0.10495146 1.1271106 138 140 141 -0.026273577 0.0092334067 0.99961215 1.7846998e-05
-0.074928679 -0.10468061 1.1275843 137 139 140 -0.02276081 0.0093575316 0.99969715 1.0785295e-05
-0.053014714 -0.1040898 1.1281258 138 141 142 -0.062204439 0.010839848 0.99800456 1.1423572e-05
0.35801399 -0.10218354 1.1375763 130 134 137 -0.096187159 0.014230387 0.99526155 0.0010684585
0.38080534 -0.10351571 1.1392258 129 134 136 0.16431637 -0.011123172 0.98634499 0.05601928
0.39344606 -0.10597733 1.1319567 118 121 124 0.49802855 0.007033668 0.86713213 0.046329334
0.46963626 -0.10447517 1.1159537 109 110 116 -0.31790939 0.010759288 0.94806004 0.0057485388
0.49480489 -0.10480943 1.124169 161 172 188 -0.13282602 0.011173799 0.99107641 0.0076873163
0.52424383 -0.10499229 1.1243386 117 127 137 -0.019795002 0.010201282 0.99975204 3.2066114e-07
0.55496025 -0.10450729 1.1249433 69 79 85 -0.019163152 0.0099413432 0.99976695 2.5747789e-07
0.58541965 -0.10476679 1.1254938 70 79 84 -0.019581523 0.0096500404 0.9997617 7.6415768e-07
0.61507028 -0.10480131 1.1260943 55 61 64 -0.020327339 0.0093986038 0.99974918 4.4848517e-07
0.64439845 -0.10501902 1.1266849 48 51 50 -0.019833075 0.009620484 0.99975699 4.9836092e-07
0.67464924 -0.10443533 1.1272744 49 51 45 -0.019384777 0.0099449474 0.99976265 4.2761636e-07
0.70530999 -0.10453384 1.1278657 57 59 50 -0.018890006 0.0098303156 0.99977326 5.8280381e-07
0.73484385 -0.10509365 1.1284416 59 61 51 -0.01920953 0.0095660407 0.99976969 5.9315056e-07
0.76400661 -0.10500459 1.1290259 63 65 53 -0.019953476 0.0094225071 0.99975652 1.8717006e-07
0.79442787 -0.10443896 1.1296197 73 73 60 -0.019572254 0.0089003546 0.99976885 6.2213581e-07
0.82510275 -0.10491386 1.1301941 72 71 58 -0.018327378 0.0088473773 0.99979287 7.5567237e-07
0.8544631 -0.10495314 1.1307155 74 72 61 -0.019916877 0.009426184 0.99975723 1.7579838e-06
0.88397622 -0.1048443 1.1313651 83 79 71 -0.02208744 0.01008609 0.99970514 1.6062263e-07
0.914657 -0.1046665 1.1320561 53 53 51 -0.019560173 0.010087362 0.99975777 1.8404631e-06
0.94522458 -0.10487691 1.1325921 49 49 49 -0.01654125 0.01039637 0.99980915 6.1050389e-07
0.97453767 -0.10499935 1.1330608 46 46 43 -0.021282881 0.0098365182 0.9997251 6.0145126e-06
1.0041609 -0.10450482 1.1338282 45 45 42 -0.025463076 0.0090353973 0.99963492 1.2669585e-06
1.0347197 -0.10487249 1.134572 46 45 41 -0.018449431 0.0087745674 0.99979126 6.2460604e-06
1.0656644 -0.10502016 1.1349705 47 45 41 -0.015138049 0.0098172398 0.99983722 1.4212685e-06
1.0948279 -0.10494675 1.1354907 48 46 41 -0.019378884 0.009157775 0.99977028 2.6372006e-06
1.1236619 -0.10484064 1.1360998 51 48 42 -0.022182988 0.0089660026 0.99971372 2.4725782e-06
1.1544938 -0.10475121 1.1368014 55 50 43 -0.019853886 0.0090764342 0.9997617 3.7604677e-06
1.1857359 -0.10530971 1.1373384 67 63 50 -0.018408168 0.0092384741 0.99978787 2.4046578e-06
1.2153581 -0.1048155 1.1378936 70 63 51 -0.034347314 0.016119881 0.99927998 0.00075973873
1.2435784 -0.10419369 1.1392672 76 68 55 -0.02848943 0.0097742947 0.99954629 0.0013152291
1.2748266 -0.10549869 1.1397928 83 74 60 -0.013233181 0.0065647559 0.99989086 0.0014546623
1.3052825 -0.10507707 1.1400833 71 62 49 -0.016778387 0.0089276806 0.9998194 0.0013734458
1.3348751 -0.10324682 1.1404682 74 65 52 -0.012690093 0.0066175158 0.9998976 0.0013024117
1.3626786 -0.10420462 1.1406605 77 69 55 -0.010379045 0.005370066 0.99993169 0.0010884898
1.3866252 -0.11190034 1.1410116 75 66 51 -0.025067342 0.011030648 0.99962491 0.00075867563
1.6750869 -0.10463414 1.1391699 52 42 37 0.25121963 0.017616335 0.9677698 0.0076330164
1.6946601 -0.1047931 1.1318084 43 30 16 0.17836554 0.010911371 0.98390377 0.0084141036
1.7243303 -0.10521202 1.1321149 47 34 19 -0.12675172 0.015733168 0.99180967 0.0018354697
-1.1082721 -0.075432375 1.0993699 151 135 116 -0.30997896 0.0091713807 0.95069921 0.087875783
-1.0936056 -0.07498008 1.106732 152 137 119 -0.25428718 -0.0026602219 0.96712512 0.10080253
-1.0654131 -0.074988499 1.1076347 154 139 121 -0.012107161 0.025590915 0.99959916 0.035098825
-1.0352648 -0.074989781 1.1082366 156 141 122 -0.016158549 0.0016185662 0.99986815 0.038241286
-1.0048766 -0.075039305 1.1094649 158 141 121 -0.013126132 -0.0012915188 0.99991304 0.039206948
-0.98092985 -0.07466647 1.1089193 159 142 120 0.075285442 -0.0023188775 0.9971593 0.031116003
-0.91220593 -0.075363636 1.1134437 159 139 114 -0.11042139 -0.014490239 0.99377924 0.030188452
-0.88542742 -0.075760111 1.1113206 161 141 116 0.085759908 0.013499657 0.99622434 0.028848797
-0.85426593 -0.075363047 1.1058117 162 141 116 -0.035875794 0.058508962 0.99764204 0.048466921
-0.82482249 -0.074968614 1.1123779 161 141 115 -0.14871696 0.088241607 0.98493487 0.027089957
-0.79518616 -0.074874848 1.1170185 164 144 118 -0.065292299 0.061813977 0.99594975 0.011404131
-0.76450455 -0.074824318 1.1172187 165 145 120 0.06552767 0.027680706 0.99746674 0.020499529
-0.73541135 -0.074897304 1.1123896 164 145 121 0.056398924 0.0033952189 0.99840254 0.027614737
-0.70485938 -0.075112902 1.1121631 163 145 123 -0.028416291 0.013796647 0.99950093 0.026530042
-0.67449236 -0.074997082 1.1128778 162 145 124 -0.027039824 0.0068987748 0.99961054 0.024383254
-0.64485788 -0.075239837 1.1134069 163 147 128 -0.023100639 0.0059724087 0.99971533 0.022187162
-0.61478049 -0.074787632 1.1135875 161 147 130 0.003021556 0.0046834485 0.99998444 0.017010877
-0.58291566 -0.075434022 1.1131209 160 148 133 -0.046049517 0.017083621 0.99879307 0.01455472
-0.55491191 -0.075031869 1.115899 158 148 135 -0.063345484 0.020361463 0.9977839 0.0062457812
-0.52490532 -0.074784063 1.1173344 157 148 136 -0.035576221 0.011305744 0.99930304 0.0016784248
-0.49456292 -0.07487984 1.1175404 156 148 139 -0.022596825 0.0053349924 0.99973041 5.0687809e-06
-0.46496299 -0.074919336 1.1183082 155 148 140 -0.023728551 0.0053931721 0.99970388 3.675701e-06
-0.43532112 -0.075174555 1.1189173 153 147 140 -0.023250746 0.0050906185 0.9997167 2.7727226e-06
-0.40499705 -0.075056888 1.1196444 150 146 140 -0.022868689 0.0052948967 0.99972445 1.5000434e-06
-0.37477514 -0.075051568 1.1202641 148 145 139 -0.022066677 0.0051739779 0.9997431 5.5087412e-07
-0.34501651 -0.075167365 1.1209798 147 143 139 -0.02342779 0.0055506038 0.99971014 2.4851624e-07
-0.31499854 -0.074917421 1.1216865 144 141 138 -0.022157777 0.0059637106 0.99973673 4.6073563e-07
-0.28451356 -0.07503324 1.1223192 143 141 138 -0.02324505 0.0062934998 0.99970996 1.1246591e-06
-0.25467908 -0.074869707 1.1230667 141 140 138 -0.022890331 0.006513698 0.99971676 1.1346111e-06
-0.22505517 -0.074937485 1.1236701 141 140 139 -0.021889804 0.0059476011 0.99974269 8.323924e-07
-0.19514923 -0.075315446 1.1243813 139 139 138 -0.023143541 0.0053706951 0.99971771 4.3185003e-07
-0.1648476 -0.074761905 1.1250672 138 138 137 -0.022549216 0.0059123882 0.99972826 1.2695283e-06
-0.13471375 -0.075296 1.1257311 138 139 139 -0.029572966 0.0083265891 0.99952793 1.1289759e-05
-0.10558847 -0.074751362 1.1267878 139 141 141 -0.027959147 0.0092626587 0.99956614 1.4628544e-05
-0.074686669 -0.074987523 1.1274002 139 141 142 -0.020611435 0.008717916 0.99974954 2.8148909e-06
-0.053466715 -0.073768042 1.1278243 138 141 142 -0.12311339 0.009543757 0.9923467 1.0566771e-06
0.35470405 -0.074891552 1.1371156 129 133 136 -0.11269004 0.0031324914 0.99362522 0.00065131765
0.37804577 -0.07444568 1.1397644 129 133 136 0.12811923 -0.0042422488 0.9917497 0.050891429
0.39379036 -0.075534083 1.1319678 121 124 127 0.4805246 -0.004232978 0.87697107 0.046952069
0.46941441 -0.075010881 1.1156242 106 107 113 -0.31687823 0.0073515428 0.94843775 0.0056550591
0.49495196 -0.075116448 1.1238471 161 172 188 -0.13052842 0.0092226919 0.99140167 0.0076091001
0.52418238 -0.075547278 1.1240311 120 129 140 -0.019763 0.0096671814 0.99975795 5.2265716e-07
0.55488873 -0.074943967 1.1246339 82 90 93 -0.019192338 0.0096936105 0.99976879 2.9337909e-07
0.58528906 -0.075357661 1.1252232 80 89 93 -0.019928141 0.0093760677 0.99975747 7.4446984e-07
0.61490589 -0.075434312 1.1258627 60 67 70 -0.020048264 0.0092782397 0.99975598 7.0130181e-07
0.64457333 -0.075472862 1.1264256 58 61 57 -0.019555522 0.0094876764 0.99976373 6.3368037e-07
0.67483044 -0.075253181 1.12702 57 59 53 -0.019780954 0.009192395 0.99976206 5.5979729e-07
0.70509642 -0.075110689 1.1276009 58 60 53 -0.019096402 0.0089076106 0.99977797 2.9697406e-07
0.73494756 -0.075486504 1.1281487 61 64 54 -0.019568302 0.0089010233 0.99976891 7.7482326e-07
0.76492953 -0.075126797 1.1287513 59 63 52 -0.020148588 0.0088163065 0.99975812 5.9508824e-07
0.79490978 -0.075467646 1.1293674 57 59 51 -0.01973711 0.0084317401 0.99976963 5.4236102e-07
0.82531214 -0.075337991 1.1299741 56 56 51 -0.018138532 0.0084813759 0.99979949 5.8140591e-07
0.85496408 -0.075501859 1.1304585 53 54 51 -0.019621309 0.0082712872 0.99977326 1.716879e-06
0.88442409 -0.075465709 1.1311122 54 55 54 -0.021957986 0.0084258886 0.99972337 4.5702947e-07
0.91513348 -0.075336196 1.1317626 47 47 47 -0.019282876 0.0088572325 0.99977481 1.7319902e-06
0.94538486 -0.075150788 1.132259 46 46 43 -0.016923107 0.0087537067 0.9998185 1.9891334e-06
0.97461444 -0.075748242 1.1327522 50 50 45 -0.022136332 0.008160051 0.99972165 6.578337e-06
1.0043228 -0.074949771 1.1335973 47 46 42 -0.025349742 0.0079510799 0.99964702 1.7738765e-06
1.0345833 -0.075584464 1.1343074 47 45 41 -0.018254677 0.0080665015 0.9998008 4.2590905e-06
1.065141 -0.075454183 1.1346923 48 45 41 -0.01488588 0.0081749968 0.99985576 1.5147432e-06
1.0946696 -0.075421534 1.1351721 50 47 42 -0.019865932 0.008067782 0.9997701 2.774048e-06
1.1241447 -0.075438969 1.1358659 53 50 43 -0.022727093 0.007856125 0.99971086 1.4946947e-06
1.1546956 -0.075291492 1.1365364 55 52 43 -0.01942466 0.0071199625 0.99978596 2.099953e-06
1.1853633 -0.075598709 1.1370376 65 62 49 -0.018785076 0.0074714655 0.99979562 2.2835559e-06
1.2149388 -0.075168386 1.1373932 71 65 54 -0.031192409 0.0083762836 0.99947828 0.00047790149
1.2437238 -0.075602196 1.1392113 74 67 55 -0.034327194 0.0083887419 0.99937546 0.0011111469
1.274105 -0.07534764 1.1397145 70 63 52 -0.011223876 0.0077962358 0.9999066 0.0013113586
1.3049934 -0.075038061 1.1396874 67 59 48 -0.015675314 0.0084124142 0.99984175 0.0012372673
1.3349891 -0.075090572 1.1401719 70 63 51 -0.016813515 0.0079949526 0.99982667 0.0012459297
1.3628701 -0.075271413 1.1406964 73 65 54 -0.0099354163 0.0041611786 0.999942 0.0010683245
1.3922509 -0.075467907 1.1406819 76 67 56 -0.014903739 0.0042678746 0.99987984 0.00089130626
1.4177331 -0.07271751 1.1411084 69 60 49 -0.025740882 0.019287318 0.99948257 0.00061082013
1.6753062 -0.076225109 1.139479 51 40 32 0.33030775 0.0057097739 0.943856 0.0071973591
1.6945387 -0.075945288 1.1316037 44 30 16 0.18070021 0.0087913731 0.98349893 0.0081021329
1.7244532 -0.07579273 1.1317409 45 32 18 -0.92372394 0.0079326844 0.38297677 3.1133773e-06
-1.0943354 -0.059497897 1.1060432 176 156 134 -0.14747731 0.15175185 0.97735453 0.049308293
-1.0636835 -0.059253819 1.107129 174 155 134 -0.031394389 0.098102033 0.99468106 0.045593269
-1.0302019 -0.059307292 1.1077629 172 155 134 -0.050837159 0.044259451 0.99772578 0.04020394
-1.0099525 -0.058695998 1.109323 173 155 136 -0.029620145 0.075084589 0.99673718 0.049465358
-0.98551905 -0.059376821 1.1085362 168 149 129 0.062509514 0.063292727 0.99603546 0.029519241
-0.91604161 -0.059064366 1.1129606 169 148 123 -0.15229417 -0.017982816 0.98817158 0.032751955
-0.88542557 -0.058383316 1.1109756 169 147 121 0.077583589 0.074915819 0.99416721 0.034017269
-0.85455322 -0.055691574 1.1046319 166 145 118 0.040537339 -0.0059437761 0.99916035 0.062934376
-0.82480556 -0.05607703 1.1097395 167 146 119 -0.1605878 0.045577958 0.98596865 0.02937234
-0.79511505 -0.055200037 1.1160128 169 147 121 -0.090840921 0.1185293 0.98878652 0.01430025
-0.76374894 -0.054216288 1.1160896 169 148 122 -0.018453319 0.60751414 0.7940945 0.02165363
-0.73539454 -0.054011472 1.1106184 169 149 124 0.067837484 0.093361475 0.99331856 0.024849238
-0.70277143 -0.047558799 1.1117128 166 147 123 -0.057406861 0.035308067 0.99772632 0.026029611
-0.67464364 -0.045647148 1.1125489 164 146 124 -0.025768192 0.006424834 0.99964732 0.024655756
-0.64505935 -0.045361284 1.1130867 165 148 128 -0.024340197 0.0087835891 0.99966514 0.021671187
-0.61507797 -0.045515265 1.1135453 164 149 131 -0.0023446975 0.0015342722 0.99999607 0.01714493
-0.58408386 -0.045833413 1.1128128 162 149 133 -0.037084244 -0.0056371801 0.99929625 0.014990821
-0.55472416 -0.045257121 1.1151023 160 149 135 -0.061235208 -0.0037917632 0.99811614 0.0072051054
-0.52480578 -0.045209631 1.1170551 158 148 136 -0.037112296 0.00045488821 0.99931097 0.0017441646
-0.49472961 -0.045146305 1.1172866 157 149 139 -0.023272255 0.0040117693 0.99972111 6.8354393e-06
-0.46497133 -0.045268361 1.1180526 157 149 141 -0.023027128 0.0038875781 0.99972731 7.2116345e-06
-0.43508145 -0.045185659 1.1187114 154 148 141 -0.022211684 0.0049470495 0.99974108 2.7801557e-06
-0.40491644 -0.045269359 1.1194648 152 147 141 -0.02325551 0.0046708984 0.99971867 2.1022565e-06
-0.37469494 -0.045032345 1.1201462 150 146 141 -0.022240549 0.0045664534 0.99974221 1.3264416e-06
-0.34491748 -0.045479365 1.1207875 147 144 140 -0.022605019 0.0048862584 0.99973255 1.1480791e-06
-0.31483105 -0.045324907 1.1214803 145 142 138 -0.02205658 0.005509383 0.99974155 6.5501064e-07
-0.28498068 -0.045020752 1.1221063 144 142 139 -0.022973312 0.0054744603 0.99972111 1.0578926e-06
-0.2551592 -0.045233507 1.1228604 142 140 138 -0.022604266 0.00553361 0.99972916 1.2280229e-06
-0.22534317 -0.045258436 1.1234754 140 139 137 -0.02247438 0.0056169219 0.99973166 9.9830822e-07
-0.19492282 -0.045346718 1.1242341 139 139 138 -0.023266947 0.0057944623 0.99971247 5.8066627e-07
-0.16495699 -0.045057688 1.1248826 138 139 138 -0.021576947 0.0058590677 0.99975002 2.2976853e-07
-0.13519168 -0.045219801 1.1255136 139 140 140 -0.026926378 0.0071048806 0.99961215 7.0487217e-06
-0.10657511 -0.044878867 1.1264329 139 141 142 -0.028110955 0.0078576086 0.99957395 5.5162209e-06
-0.074483193 -0.045333166 1.1271856 139 141 142 -0.02114418 0.0080346633 0.99974418 1.5890731e-06
-0.052440051 -0.045520395 1.1276377 138 140 141 -0.15580529 0.012492685 0.98770881 1.991823e-07
0.35237139 -0.041829754 1.136744 129 133 136 -0.11543292 -0.0044694445 0.99330521 0.00075153535
0.37613261 -0.044786785 1.1396949 130 134 137 0.1013085 -0.0066155544 0.99483305 0.052030765
0.39389488 -0.044964578 1.1318332 120 123 126 0.48524562 0.010931008 0.87430954 0.051546823
0.4694322 -0.04494337 1.1154425 108 109 115 -0.31557065 0.0087503139 0.94886172 0.0053164526
0.49487585 -0.044786256 1.1236417 161 172 187 -0.13182074 0.0093664881 0.9912293 0.0072023943
0.52436471 -0.045003004 1.1237751 129 136 143 -0.01939738 0.0086732991 0.99977422 2.080029e-07
0.55488825 -0.044577818 1.1243396 98 101 101 -0.019300593 0.0088262577 0.99977475 7.3875881e-08
0.58565116 -0.044831023 1.1249545 82 90 95 -0.019845011 0.0094783502 0.99975812 7.567221e-07
0.61517721 -0.04493507 1.1255418 63 71 75 -0.019289471 0.010272592 0.99976116 7.8805948e-07
0.64459461 -0.044968423 1.1260905 58 61 59 -0.019973299 0.010278258 0.99974769 8.8585722e-07
0.67478305 -0.04474606 1.1267352 56 58 54 -0.020620912 0.0094442619 0.99974275 4.5484731e-07
0.70512539 -0.044911906 1.1273452 53 56 52 -0.018843567 0.0090306588 0.99978167 1.7111918e-07
0.73466706 -0.044519234 1.127877 53 56 51 -0.019736657 0.0086833118 0.99976748 9.7973793e-07
0.76553673 -0.044997655 1.1285613 52 55 50 -0.020059064 0.0087100519 0.99976087 1.2781161e-06
0.7958585 -0.044585306 1.1291218 49 51 48 -0.019068079 0.0096703907 0.99977142 1.5088339e-06
0.82496023 -0.044780418 1.1296899 52 53 51 -0.018668834 0.0099524753 0.99977618 1.117592e-06
0.85453045 -0.044760019 1.1302162 50 51 50 -0.019978438 0.0092942743 0.99975723 2.0028708e-06
0.88421804 -0.045087386 1.1308864 46 47 46 -0.021398969 0.0091597317 0.99972904 9.7955365e-07
0.91496319 -0.044707887 1.1315089 47 47 44 -0.019211676 0.0091800923 0.99977326 1.5442064e-06
0.94567531 -0.045088861 1.1320802 47 47 43 -0.017516954 0.008604276 0.99980956 2.3057173e-06
0.97495478 -0.044620153 1.1325842 50 50 45 -0.022481356 0.0085062562 0.9997111 7.1553159e-06
1.004078 -0.04460622 1.1333805 55 54 49 -0.025119938 0.0091498867 0.99964255 2.8663346e-06
1.0344743 -0.044961121 1.1340463 52 51 45 -0.018575922 0.0089668324 0.99978727 2.913386e-06
1.0656453 -0.044758398 1.134529 48 46 41 -0.01454833 0.0089122579 0.99985445 1.7233508e-06
1.0949342 -0.044678077 1.1349601 50 47 41 -0.019168427 0.0094526988 0.9997716 6.2105687e-06
1.1241485 -0.044939861 1.1356696 51 48 42 -0.023433372 0.0097169019 0.99967819 2.9104744e-06
1.1549433 -0.044737712 1.136382 55 51 43 -0.019732837 0.0094892038 0.99976027 4.4254507e-06
1.1857139 -0.044707965 1.1368997 69 66 54 -0.018100133 0.0092854509 0.99979305 3.6826289e-06
1.2150456 -0.044613197 1.1373651 74 68 58 -0.026320772 0.011058228 0.99959236 0.00028081631
1.2439231 -0.044724092 1.1386718 71 65 55 -0.029831104 0.02178302 0.99931759 0.0007910073
1.2722336 -0.045055654 1.1393517 65 58 49 -0.020085836 0.014856369 0.99968785 0.0011149944
1.3047024 -0.045007616 1.1394473 62 55 46 -0.013988192 0.0059183859 0.99988467 0.0011137122
1.3350196 -0.045152571 1.1399211 63 57 47 -0.019529942 0.0076385471 0.99978012 0.0011465853
1.3642331 -0.045066401 1.1404788 72 65 54 -0.011867249 0.0056587346 0.99991357 0.0010789387
1.3923786 -0.043610062 1.1406226 75 68 56 -0.007299026 0.0052957959 0.99995935 0.00090770383
1.4263963 -0.033125702 1.1408441 68 63 52 -0.027880639 0.0041009183 0.99960285 0.00076767238
1.6750413 -0.045548838 1.1392213 54 44 37 0.33298504 0.0073960884 0.9429031 0.007192763
1.6944495 -0.044740994 1.1313695 44 29 17 0.18134201 0.0077181389 0.98338979 0.0078359088
1.7246705 -0.044997822 1.1316782 45 31 20 -0.42368802 0.0040051229 0.90579933 7.5177886e-06
-0.70020384 -0.015279635 1.1116165 169 148 122 -0.11181542 0.0027901793 0.99372506 0.02384799
-0.67420948 -0.01512321 1.1124809 167 148 124 -0.024049707 0.0028328055 0.99970675 0.025257064
-0.64527541 -0.015115269 1.112808 165 148 127 -0.024521505 0.0057080262 0.99968302 0.021406131
-0.61476356 -0.015054176 1.1130906 164 148 129 -0.014818813 0.0056554182 0.99987417 0.01802006
-0.58343703 -0.015327864 1.1139491 162 149 132 -0.033973929 0.0050644772 0.99940991 0.013683185
-0.55511063 -0.015242015 1.1162694 160 149 134 -0.057037193 0.0081705926 0.99833864 0.0079667643
-0.52488959 -0.015063131 1.1166068 159 149 136 -0.019168574 0.0024335482 0.99981332 1.3326722e-05
-0.49456728 -0.015063848 1.1173393 157 148 137 -0.022463707 0.0048304545 0.99973601 9.3713552e-06
-0.46498477 -0.015194317 1.1180633 156 148 139 -0.022585448 0.0055384906 0.99972957 1.0099199e-05
-0.43537319 -0.014917264 1.1186286 155 148 140 -0.022519421 0.006113749 0.99972773 3.9502174e-06
-0.40514421 -0.015239307 1.1193274 152 147 140 -0.023539186 0.0059446464 0.99970526 2.9730079e-06
-0.37493017 -0.014878619 1.1200202 150 145 140 -0.022713982 0.0056608813 0.999726 1.6674493e-06
-0.34520742 -0.01523649 1.1206839 148 144 140 -0.022176638 0.0050830333 0.99974114 1.2466434e-06
-0.31491867 -0.015106715 1.1213431 146 143 139 -0.021949617 0.0048940619 0.9997471 2.2203884e-07
-0.28483874 -0.015148208 1.1220043 144 141 138 -0.022784458 0.0053697987 0.999726 7.9204443e-07
-0.25500056 -0.015047891 1.1227095 142 140 137 -0.022433499 0.0055488865 0.99973291 8.9018164e-07
-0.22522151 -0.015021852 1.1233251 140 139 137 -0.022770083 0.0057825134 0.99972403 8.3844628e-07
-0.19510159 -0.014991425 1.1240596 138 137 135 -0.02283271 0.0058342004 0.9997223 6.4483356e-07
-0.16466011 -0.015368276 1.1247058 138 139 138 -0.021678546 0.0059207017 0.99974746 1.4740485e-07
-0.13518381 -0.015031117 1.1253626 139 140 140 -0.024982469 0.0069065536 0.99966401 2.8955942e-06
-0.10668964 -0.014629755 1.1261553 140 141 142 -0.026655169 0.0077688252 0.99961448 1.756142e-06
-0.074927278 -0.015340353 1.1269718 139 141 142 -0.022602137 0.007829465 0.9997139 1.7212853e-06
-0.051223096 -0.014576379 1.1274285 137 139 140 0.21255039 0.0029502981 0.97714567 3.4614763e-07
0.35044327 -0.012756861 1.1368539 129 134 136 -0.061769869 -0.01226011 0.99801511 0.00056655455
0.37608361 -0.014501448 1.1398709 130 135 138 0.12924701 -0.0065426948 0.99159086 0.053458352
0.39380181 -0.015651453 1.1321447 119 123 125 0.48301804 0.0051221666 0.87559545 0.052005842
0.4690277 -0.014450389 1.1148633 105 105 111 -0.3153421 0.0094912723 0.94893062 0.0052208132
0.49483669 -0.014538608 1.1232673 161 172 187 -0.13197464 0.0097293528 0.99120533 0.0072687361
0.52444822 -0.014350966 1.1235058 132 140 147 -0.019366736 0.0086686565 0.99977487 9.0417501e-08
0.55499858 -0.014273443 1.124091 109 112 111 -0.019267818 0.0085693849 0.99977762 9.125938e-08
0.58535928 -0.014360082 1.1246675 82 89 93 -0.019333342 0.0086025614 0.99977607 7.1705625e-07
0.61508691 -0.01451739 1.1252264 63 69 72 -0.019042501 0.0085249413 0.99978232 8.3850102e-07
0.64549512 -0.014448216 1.1258003 65 67 64 -0.020403422 0.0084988577 0.99975568 1.15912e-06
0.675789 -0.014405373 1.126484 66 66 59 -0.020522056 0.0089763431 0.99974912 5.319672e-07
0.70507014 -0.014341338 1.127056 65 64 60 -0.018596213 0.0094631556 0.99978226 1.4751151e-07
0.73481119 -0.013981246 1.1275908 65 64 60 -0.020091197 0.0097678835 0.99975044 8.4682813e-07
0.76558846 -0.014274879 1.128273 57 58 56 -0.019640237 0.01006781 0.9997564 1.3030088e-06
0.79582101 -0.014204587 1.1287678 50 52 51 -0.018584544 0.0099440468 0.99977785 1.0840968e-06
0.82538193 -0.014512206 1.1293626 57 58 56 -0.019047668 0.0098851658 0.99976969 1.0466617e-06
0.85451943 -0.01429375 1.1298938 70 68 61 -0.020194083 0.0099174865 0.99974692 1.7296079e-06
0.88416475 -0.014242516 1.1305609 70 66 62 -0.020942649 0.01029426 0.99972767 6.6624426e-07
0.91493338 -0.014402647 1.13115 47 48 44 -0.02013208 0.0095737102 0.99975151 9.6873509e-07
0.94558024 -0.01448974 1.1317863 48 49 44 -0.017742705 0.0097188996 0.99979538 3.049392e-06
0.97481918 -0.014120557 1.1322141 52 52 46 -0.021561226 0.0098429546 0.99971908 8.9474343e-06
1.0037754 -0.014569199 1.133044 64 63 56 -0.025437048 0.009964982 0.99962676 2.4104768e-06
1.0346032 -0.014104238 1.1337419 61 59 53 -0.018373439 0.0097252168 0.99978387 3.2816474e-06
1.0653864 -0.014428686 1.1341799 49 47 42 -0.014314496 0.010447249 0.99984294 1.1613387e-06
1.0945647 -0.014264893 1.1345826 50 48 42 -0.0184639 0.011034367 0.99976861 3.4216901e-06
1.1244448 -0.014648387 1.13526 52 49 42 -0.023382735 0.011234452 0.99966347 1.0248607e-06
1.1548353 -0.01402615 1.1359833 54 51 43 -0.01992717 0.011593184 0.99973422 3.385378e-06
1.1855168 -0.014137312 1.1364728 70 65 55 -0.017801698 0.011827887 0.9997716 1.1433965e-06
1.2147905 -0.014370734 1.1370492 74 68 59 -0.020112954 0.01153864 0.99973112 9.7021598e-07
1.2437661 -0.014036267 1.1373844 61 55 47 -0.02888155 0.016344983 0.99944919 0.00044220543
1.2735939 -0.014608322 1.1388203 60 54 45 -0.027095249 0.017152648 0.99948567 0.00085678714
1.3054574 -0.014934295 1.1394635 61 56 46 -0.01552196 0.01113127 0.99981755 0.0010614076
1.3348407 -0.015135476 1.1398 62 56 47 -0.019260202 0.0081099914 0.99978161 0.0011204451
1.3643996 -0.01506089 1.140343 75 68 58 -0.015607588 0.0066295727 0.99985623 0.0011022153
1.3922455 -0.014906758 1.140533 70 64 55 -0.0085879192 0.0050887507 0.99995017 0.00097573519
1.4203773 -0.012282918 1.1406704 62 56 49 -0.014984705 0.0087637585 0.99984932 0.00075430586
1.675161 -0.013747992 1.1380659 54 44 35 0.2635839 0.0089632319 0.96459484 0.0085658664
1.6948838 -0.01426946 1.1310911 43 28 16 0.17654954 0.010925673 0.98423111 0.0079483734
1.7238435 -0.014607207 1.1311785 45 31 19 -0.10716341 0.014326697 0.99413818 0.0015930095
-0.70037585 0.014816218 1.1116096 171 149 123 -0.11373478 0.0051841033 0.99349761 0.024553908
-0.67408127 0.015169194 1.1125734 169 149 125 -0.02229511 0.0048959414 0.99973947 0.025872981
-0.64506429 0.014888993 1.1128798 167 149 127 -0.024281841 0.0044780276 0.99969512 0.021262998
-0.61489999 0.015303172 1.1129422 165 149 129 -0.016853247 0.0044409297 0.99984813 0.018081296
-0.58324748 0.015381699 1.1127813 164 149 132 -0.025333093 0.02074293 0.99946386 0.015084067
-0.55420208 0.014364384 1.1142105 160 148 132 -0.060054082 0.022853434 0.99793351 0.0092873741
-0.52481836 0.01529659 1.1164902 159 148 135 -0.039471142 0.0044685765 0.99921072 0.0023438884
-0.49471045 0.015144568 1.1170162 158 149 138 -0.022465261 0.0061978344 0.99972844 7.0071292e-06
-0.46478164 0.015013213 1.1176933 157 149 140 -0.022500947 0.0060051577 0.9997288 7.9835418e-06
-0.43506667 0.015238094 1.1183602 155 148 140 -0.022240717 0.0049179085 0.99974054 4.6721002e-06
-0.40498474 0.015004176 1.1190977 152 146 140 -0.0227361 0.0057069673 0.99972522 2.9846585e-06
-0.37495059 0.015220927 1.1197881 150 145 139 -0.02274213 0.0062348503 0.99972194 1.8862772e-06
-0.3450444 0.015093909 1.1204891 147 143 137 -0.023058843 0.0061382721 0.99971527 1.5209694e-06
-0.31489858 0.015020723 1.1211818 145 142 137 -0.021891359 0.0054064379 0.99974573 5.8760082e-07
-0.28473487 0.014947605 1.1218073 143 141 137 -0.021904057 0.0059618307 0.99974233 8.6229471e-07
-0.25499538 0.015092221 1.1224905 140 139 135 -0.022666901 0.0060517401 0.99972475 5.9772395e-07
-0.22500221 0.015288193 1.1231664 139 138 135 -0.022897677 0.0058303359 0.99972081 6.7725767e-07
-0.19503941 0.015050618 1.1238703 138 138 135 -0.022233739 0.0058265338 0.99973583 5.6908863e-07
-0.16491427 0.015209878 1.1245091 139 139 138 -0.022000361 0.0061032358 0.99973935 1.8293703e-07
-0.13491884 0.01478912 1.1251881 140 141 141 -0.023578538 0.0066398894 0.99969995 1.0256682e-06
-0.10529344 0.015395456 1.1258985 139 141 142 -0.025349734 0.0076940199 0.99964905 1.2379905e-06
-0.074534997 0.015546578 1.1267202 139 141 142 -0.023408318 0.0082538072 0.9996919 1.4547775e-06
-0.051366568 0.015330573 1.1272366 138 140 141 -0.049037613 0.0071977745 0.99877101 5.2210527e-07
0.32408851 0.019192113 1.135323 133 137 141 -0.061871711 -0.003342397 0.99807853 4.6072893e-07
0.34890243 0.015748583 1.1370299 130 134 137 -0.041737784 -0.0040342696 0.99912047 0.00068801182
0.37585559 0.015087321 1.139443 130 134 137 0.15167885 -0.016324233 0.98829502 0.056514177
0.39353275 0.015074253 1.1318115 120 123 126 0.4878509 -0.0086643249 0.87288398 0.056467213
0.46945933 0.015385778 1.1147571 106 106 111 -0.31568196 0.0069112093 0.9488399 0.0051645278
0.49494725 0.014941072 1.1230564 161 172 187 -0.13193755 0.0081032598 0.99122488 0.0073008128
0.52416986 0.015307534 1.1232464 130 137 145 -0.019058233 0.009010341 0.99977779 5.3308958e-07
0.55493993 0.015290713 1.1238278 102 105 107 -0.019063715 0.0095229577 0.99977291 3.8078994e-07
0.58568561 0.015045925 1.1244346 62 71 78 -0.019819299 0.0089536533 0.99976349 1.1910579e-06
0.6149708 0.015089946 1.1250252 53 60 64 -0.019422179 0.0082075773 0.99977767 8.6790862e-07
0.64552283 0.015014878 1.1256033 56 59 56 -0.019702753 0.0085367188 0.99976945 1.3721962e-06
0.67579019 0.0150869 1.1262181 53 54 50 -0.019958284 0.0095374519 0.99975532 6.0859117e-07
0.70506734 0.015311688 1.1267633 47 48 47 -0.018940436 0.009602556 0.99977452 4.1301408e-07
0.7344436 0.015128016 1.1273036 51 51 49 -0.019763282 0.0096455719 0.99975818 6.7616287e-07
0.76541948 0.0151473 1.127952 56 57 54 -0.019478451 0.0094797369 0.99976534 1.1697782e-06
0.79599917 0.015192697 1.1285185 50 51 49 -0.019084105 0.0091281077 0.99977618 1.1826269e-06
0.82501441 0.015031235 1.1290996 57 58 52 -0.019042853 0.0087245153 0.9997806 8.7552519e-07
0.8548876 0.014876818 1.1296288 64 63 57 -0.020316934 0.0087631242 0.9997552 1.5253762e-06
0.88436288 0.015437923 1.1302894 74 71 68 -0.020433038 0.0090517709 0.99975026 1.770678e-06
0.91513735 0.014913543 1.1308879 69 67 63 -0.019861814 0.0097965822 0.99975473 2.2275092e-06
0.94557202 0.015093376 1.1315465 49 50 46 -0.017911058 0.010014114 0.99978942 3.3528286e-06
0.9748593 0.015288731 1.1319587 53 53 48 -0.021445708 0.0097304909 0.99972266 9.1297388e-06
1.0042206 0.01462805 1.132795 65 63 57 -0.025656387 0.0095796492 0.99962491 1.9032354e-06
1.0347393 0.015497475 1.1334752 59 56 52 -0.018231478 0.009958379 0.99978417 3.8974522e-06
1.0651482 0.014777739 1.1338876 54 52 48 -0.014127155 0.0094055794 0.999856 6.7131811e-07
1.0948558 0.015300905 1.134313 50 47 42 -0.018211991 0.0094179232 0.99978977 3.1812378e-06
1.1240755 0.01482905 1.1349649 52 49 43 -0.023023019 0.0094825979 0.99968994 6.5513035e-07
1.1550415 0.015350701 1.1356964 55 52 44 -0.020220412 0.0093101449 0.99975222 3.2628002e-06
1.1854237 0.015161336 1.1361854 68 64 55 -0.017581018 0.0091143465 0.9998039 7.5106544e-07
1.2154366 0.014963791 1.1367674 61 56 47 -0.019898649 0.0096108448 0.9997558 1.0450401e-06
1.2444326 0.015458638 1.1372359 63 58 48 -0.025554517 0.012554498 0.99959457 0.00019903659
1.2750987 0.014987969 1.1382278 63 57 47 -0.030066349 0.014698699 0.99943984 0.00065404503
1.3047795 0.015649542 1.1391546 66 61 51 -0.020807331 0.012726672 0.99970251 0.00099471491
1.3348507 0.014142985 1.1396177 74 69 59 -0.016775172 0.0082998117 0.99982482 0.0011105725
1.3646903 0.015045603 1.1401714 70 65 56 -0.018814676 0.0095160613 0.99977767 0.0010583677
1.394085 0.015198544 1.1405832 62 58 49 -0.0096977511 0.0078558456 0.9999221 0.00088600046
1.4220515 0.01682785 1.1405646 61 57 47 -0.011554577 0.01079557 0.99987495 0.00076085975
1.442798 0.021963554 1.1408296 59 54 46 -0.022555191 0.013499773 0.99965447 0.00059527659
1.6748613 0.014661573 1.138974 55 45 39 0.32382581 0.011732629 0.94604397 0.0068162349
1.6944782 0.014873972 1.1307209 43 29 16 0.18209024 0.011338573 0.98321646 0.0081722867
1.7244509 0.014208177 1.1307966 47 33 19 0.29744932 0.0094780447 0.95469058 1.695607e-06
-0.70025855 0.045057356 1.1115193 170 149 121 -0.11202114 0.0035407075 0.99369949 0.024374668
-0.67427242 0.044836897 1.1123821 170 150 125 -0.021895852 0.0065372325 0.99973887 0.025517086
-0.64519054 0.044516772 1.1126196 167 149 126 -0.024283431 0.0082019577 0.99967146 0.02111337
-0.61475158 0.044747982 1.1130728 167 150 130 -0.0097997654 0.0039234594 0.99994427 0.017061371
-0.58345598 0.04516457 1.1126572 164 149 131 -0.013649045 0.001990451 0.99990487 0.015025895
-0.5535233 0.044681314 1.1137611 161 149 133 -0.065960124 0.0036799607 0.99781549 0.010306216
-0.52499992 0.044748381 1.116852 161 150 137 -0.042851422 -0.0040221582 0.99907339 0.0030546037
-0.49483952 0.045037333 1.1169535 159 150 139 -0.022206305 0.0045045344 0.99974328 4.7577023e-06
-0.46516922 0.044690009 1.1176969 158 149 140 -0.022356477 0.0043466729 0.9997406 5.0426033e-06
-0.43524611 0.044820413 1.1183187 155 148 140 -0.02288495 0.0052201422 0.99972445 4.8464544e-06
-0.40493521 0.04491616 1.1190205 152 146 139 -0.022757586 0.0051041455 0.99972796 2.1877115e-06
-0.37484738 0.044967275 1.1196073 149 144 137 -0.022457575 0.0050120256 0.99973524 1.0308443e-06
-0.34491512 0.045139849 1.1203281 147 143 137 -0.023777811 0.0049687945 0.9997049 5.263571e-07
-0.31484362 0.044743154 1.1210415 145 142 137 -0.021913597 0.0049810098 0.99974746 6.1738183e-07
-0.28482249 0.045019507 1.1216513 143 140 136 -0.021278355 0.0048996639 0.99976158 3.4783483e-07
-0.25493091 0.044888295 1.1223072 140 139 135 -0.02299759 0.0050119432 0.99972296 2.6684728e-07
-0.22525032 0.045036178 1.1230218 139 138 134 -0.022935871 0.0052145328 0.99972332 1.9978447e-07
